ply
format ascii 1.0
element vertex 1324
property float x
property float y
property float z
property uchar red
property uchar green
property uchar blue
end_header
-0.166203 -0.14237 0.658539 21 6 80
-0.165469 -0.142819 0.660616 22 6 80
-0.164726 -0.143268 0.662692 23 6 80
-0.163957 -0.1437 0.664693 23 6 80
-0.163181 -0.144133 0.666693 24 6 80
-0.162397 -0.144565 0.668692 25 6 80
-0.161605 -0.144997 0.670693 26 6 80
-0.160824 -0.145446 0.67277 27 6 80
-0.160035 -0.145895 0.674847 27 6 80
-0.159256 -0.146361 0.677 28 6 80
-0.158433 -0.146793 0.679 29 6 80
-0.157603 -0.147226 0.681 30 6 80
-0.156765 -0.147658 0.683 31 6 80
-0.155919 -0.14809 0.685 31 6 80
-0.155066 -0.148523 0.687 32 6 80
-0.154205 -0.148955 0.689 33 6 80
-0.153353 -0.149404 0.691077 34 6 80
-0.152511 -0.14987 0.693231 35 6 80
-0.151643 -0.150319 0.695308 35 6 80
-0.150751 -0.150751 0.697308 36 6 80
-0.149852 -0.151184 0.699308 37 6 80
-0.148944 -0.151616 0.701308 38 6 80
-0.14803 -0.152048 0.703308 39 6 80
-0.147107 -0.152481 0.705308 39 6 80
-0.146193 -0.15293 0.707384 40 6 80
-0.145271 -0.153379 0.709461 41 6 80
-0.144341 -0.153828 0.711539 42 6 80
-0.143403 -0.154277 0.713616 43 6 80
-0.142457 -0.154726 0.715692 43 6 80
-0.141488 -0.155158 0.717692 44 6 80
-0.140511 -0.155591 0.719693 45 6 80
-0.139527 -0.156023 0.721693 46 6 80
-0.138535 -0.156455 0.723693 47 6 80
-0.137536 -0.156888 0.725693 47 6 80
-0.136543 -0.157337 0.727769 48 6 80
-0.135557 -0.157802 0.729923 49 6 80
-0.134549 -0.158251 0.732 50 6 80
-0.133518 -0.158684 0.734 51 6 80
-0.13248 -0.159116 0.736 51 6 80
-0.131434 -0.159549 0.738 52 6 80
-0.130381 -0.159981 0.74 53 6 80
-0.12932 -0.160413 0.742 54 6 80
-0.128251 -0.160846 0.744 55 6 80
-0.127188 -0.161295 0.746077 55 6 80
-0.12613 -0.16176 0.748231 56 6 80
-0.125051 -0.162209 0.750308 57 6 80
-0.123952 -0.162642 0.752308 58 6 80
-0.122844 -0.163074 0.754308 59 6 80
-0.121729 -0.163506 0.756308 59 6 80
-0.120607 -0.163939 0.758308 60 6 80
-0.119477 -0.164371 0.760308 61 6 80
-0.118351 -0.16482 0.762384 62 6 80
-0.117217 -0.165269 0.764461 63 6 80
-0.116076 -0.165718 0.766539 63 6 80
-0.114926 -0.166168 0.768616 64 6 80
-0.113769 -0.166616 0.770693 65 6 80
-0.112592 -0.167049 0.772693 66 6 80
-0.111408 -0.167481 0.774692 67 6 80
-0.110216 -0.167914 0.776693 67 6 80
-0.109017 -0.168346 0.778693 68 6 80
-0.10781 -0.168778 0.780693 69 6 80
-0.106606 -0.169227 0.78277 70 6 80
-0.105404 -0.169693 0.784923 71 6 80
-0.104184 -0.170142 0.787 71 6 80
-0.102946 -0.170574 0.789 72 6 80
-0.1017 -0.171007 0.791 73 6 80
-0.100447 -0.171439 0.793 74 6 80
-0.0991857 -0.171871 0.795 75 6 80
-0.0979172 -0.172304 0.797 75 6 80
-0.096641 -0.172736 0.799 76 6 80
-0.0953754 -0.173202 0.801153 77 6 80
-0.0940927 -0.173651 0.803231 78 6 80
-0.0928021 -0.1741 0.805308 79 6 80
-0.0914949 -0.174532 0.807308 79 6 80
-0.09018 -0.174965 0.809308 80 6 80
-0.0888575 -0.175397 0.811308 81 6 80
-0.0875274 -0.175829 0.813308 82 6 80
-0.0861977 -0.176278 0.815384 83 6 80
-0.0848603 -0.176727 0.817461 83 6 80
-0.0835149 -0.177177 0.819539 84 6 80
-0.0821616 -0.177626 0.821616 85 6 80
-0.0808003 -0.178074 0.823693 86 6 80
-0.0794238 -0.178507 0.825692 87 6 80
-0.0780396 -0.178939 0.827693 87 6 80
-0.0766478 -0.179372 0.829693 88 6 80
-0.0752484 -0.179804 0.831693 89 6 80
-0.0738413 -0.180236 0.833692 90 6 80
-0.0724334 -0.180685 0.83577 91 6 80
-0.071024 -0.181151 0.837923 91 6 80
-0.0696 -0.1816 0.84 92 6 80
-0.0681619 -0.182032 0.842 93 6 80
-0.0667162 -0.182465 0.844 94 6 80
-0.0652629 -0.182897 0.846 95 6 80
-0.0638019 -0.18333 0.848 95 6 80
-0.0623333 -0.183762 0.85 96 6 80
-0.0608572 -0.184194 0.852 97 6 80
-0.0593787 -0.184643 0.854077 98 6 80
-0.0578975 -0.185109 0.856231 99 6 80
-0.0564031 -0.185558 0.858308 99 6 80
-0.0548958 -0.18599 0.860308 100 6 80
-0.053381 -0.186423 0.862308 101 6 80
-0.0518585 -0.186855 0.864308 102 6 80
-0.0503284 -0.187287 0.866308 103 6 80
-0.0487906 -0.18772 0.868308 103 6 80
-0.0472494 -0.188169 0.870384 104 6 80
-0.0457003 -0.188618 0.872461 105 6 80
-0.0441434 -0.189067 0.874539 106 6 80
-0.0425785 -0.189516 0.876616 107 6 80
-0.0410056 -0.189965 0.878693 107 6 80
-0.0394215 -0.190397 0.880693 108 6 80
-0.0378297 -0.19083 0.882693 109 6 80
-0.0362303 -0.191262 0.884692 110 6 80
-0.0346232 -0.191694 0.886693 111 6 80
-0.0330086 -0.192127 0.888693 111 6 80
-0.031389 -0.192576 0.890769 112 6 80
-0.0297641 -0.193041 0.892923 113 6 80
-0.0281286 -0.193491 0.895 114 6 80
-0.0264829 -0.193923 0.897 115 6 80
-0.0248295 -0.194355 0.899 115 6 80
-0.0231686 -0.194788 0.901 116 6 80
-0.0215 -0.19522 0.903 117 6 80
-0.0198238 -0.195652 0.905 118 6 80
-0.01814 -0.196085 0.907 119 6 80
-0.01645 -0.196534 0.909077 119 6 80
-0.0147533 -0.196999 0.911231 120 6 80
-0.0130473 -0.197448 0.913308 121 6 80
-0.0113324 -0.197881 0.915308 122 6 80
-0.00960989 -0.198313 0.917308 123 6 80
-0.00787978 -0.198746 0.919308 123 6 80
-0.00614205 -0.199178 0.921308 124 6 80
-0.0043967 -0.19961 0.923308 125 6 80
-0.00264395 -0.200059 0.925384 126 6 80
-0.000883296 -0.200508 0.927461 127 6 80
0.000885275 -0.200957 0.929539 127 6 80
0.00266176 -0.201407 0.931616 128 6 80
0.00444615 -0.201855 0.933692 129 6 80
0.00623795 -0.202288 0.935693 130 6 80
0.00803737 -0.20272 0.937693 131 6 80
0.0098444 -0.203153 0.939693 131 6 80
0.0116591 -0.203585 0.941693 132 6 80
0.0134824 -0.204034 0.94377 133 6 80
0.0153137 -0.204483 0.945847 134 6 80
0.0171543 -0.204949 0.948 135 6 80
0.019 -0.205381 0.95 135 6 80
0.0208533 -0.205813 0.952 136 6 80
0.0227143 -0.206246 0.954 137 6 80
0.0245829 -0.206678 0.956 138 6 80
0.0264591 -0.207111 0.958 139 6 80
0.0283429 -0.207543 0.96 139 6 80
0.0302367 -0.207992 0.962077 140 6 80
0.032141 -0.208457 0.964231 141 6 80
0.0340508 -0.208907 0.966308 142 6 80
0.0359657 -0.209339 0.968308 143 6 80
0.0378882 -0.209771 0.970308 143 6 80
0.0398183 -0.210204 0.972308 144 6 80
0.041756 -0.210636 0.974308 145 6 80
0.0437014 -0.211068 0.976308 146 6 80
0.0456579 -0.211517 0.978384 147 6 80
0.0476224 -0.211966 0.980461 147 6 80
0.0495948 -0.212416 0.982539 148 6 80
0.0515751 -0.212865 0.984616 149 6 80
0.0535633 -0.213314 0.986693 150 6 80
0.0555551 -0.213746 0.988693 151 6 80
0.0575545 -0.214178 0.990693 151 6 80
0.0595616 -0.214611 0.992693 152 6 80
0.0615762 -0.215043 0.994693 153 6 80
0.0635985 -0.215475 0.996692 154 6 80
0.0656334 -0.215924 0.99877 155 6 80
0.0676815 -0.21639 1.00092 155 6 80
0.0697324 -0.216839 1.003 156 6 80
0.0717857 -0.217271 1.005 157 6 80
0.0738467 -0.217704 1.007 158 6 80
0.0759152 -0.218136 1.009 159 6 80
0.0779914 -0.218569 1.011 159 6 80
0.0800752 -0.219001 1.013 160 6 80
0.0821667 -0.219433 1.015 161 6 80
0.0842721 -0.219882 1.01708 162 6 80
0.0863919 -0.220348 1.01923 163 6 80
0.0885133 -0.220797 1.02131 163 6 80
0.0906358 -0.221229 1.02331 164 6 80
0.0927659 -0.221662 1.02531 165 6 80
0.0949037 -0.222094 1.02731 166 6 80
0.097049 -0.222527 1.02931 167 6 80
0.099202 -0.222959 1.03131 167 6 80
0.10137 -0.223408 1.03338 168 6 80
0.103546 -0.223857 1.03546 169 6 80
0.10573 -0.224306 1.03754 170 6 80
0.107922 -0.224755 1.03962 171 6 80
0.110122 -0.225204 1.04169 171 6 80
0.112321 -0.225636 1.04369 172 6 80
0.114528 -0.226069 1.04569 173 6 80
0.116743 -0.226501 1.04769 174 6 80
0.118965 -0.226934 1.04969 175 6 80
0.121195 -0.227366 1.05169 175 6 80
0.123442 -0.227815 1.05377 176 6 80
0.125705 -0.228281 1.05592 177 6 80
0.127968 -0.22873 1.058 178 6 80
0.130229 -0.229162 1.06 179 6 80
0.132497 -0.229594 1.062 179 6 80
0.134773 -0.230027 1.064 180 6 80
0.137057 -0.230459 1.066 181 6 80
0.139349 -0.230891 1.068 182 6 80
0.141648 -0.231324 1.07 183 6 80
0.143975 -0.231789 1.07215 183 6 80
0.1463 -0.232238 1.07423 184 6 80
0.148633 -0.232687 1.07631 185 6 80
0.150963 -0.23312 1.07831 186 6 80
0.153301 -0.233552 1.08031 187 6 80
0.155646 -0.233985 1.08231 187 6 80
0.157999 -0.234417 1.08431 188 6 80
0.160371 -0.234866 1.08638 189 6 80
0.162751 -0.235315 1.08846 190 6 80
0.165139 -0.235764 1.09054 191 6 80
0.167535 -0.236213 1.09262 191 6 80
0.169938 -0.236662 1.09469 192 6 80
0.172337 -0.237095 1.09669 193 6 80
0.174744 -0.237527 1.09869 194 6 80
0.177159 -0.237959 1.10069 195 6 80
0.179581 -0.238392 1.10269 195 6 80
0.182011 -0.238824 1.10469 196 6 80
0.184462 -0.239273 1.10677 197 6 80
0.186933 -0.239739 1.10892 198 6 80
0.189399 -0.240188 1.111 199 6 80
0.19186 -0.24062 1.113 199 6 80
0.194329 -0.241052 1.115 200 6 80
0.196805 -0.241485 1.117 201 6 80
0.199289 -0.241917 1.119 202 6 80
0.20178 -0.24235 1.121 203 6 80
0.204279 -0.242782 1.123 203 6 80
0.2068 -0.243231 1.12508 204 6 80
0.209343 -0.243697 1.12723 205 6 80
0.21188 -0.244146 1.12931 206 6 80
0.21441 -0.244578 1.13131 207 6 80
0.216947 -0.24501 1.13331 207 6 80
0.219493 -0.245443 1.13531 208 6 80
0.222046 -0.245875 1.13731 209 6 80
0.224606 -0.246307 1.13931 210 6 80
0.22719 -0.246756 1.14138 211 6 80
0.229781 -0.247205 1.14346 211 6 80
0.232381 -0.247655 1.14554 212 6 80
0.234988 -0.248104 1.14762 213 6 80
0.237603 -0.248553 1.14969 214 6 80
0.24021 -0.248985 1.15169 215 6 80
0.242825 -0.249417 1.15369 215 6 80
0.245447 -0.24985 1.15569 216 6 80
0.248077 -0.250282 1.15769 217 6 80
0.250715 -0.250715 1.15969 218 6 80
0.253376 -0.251164 1.16177 219 6 80
0.256063 -0.251629 1.16392 219 6 80
0.258741 -0.252078 1.166 220 6 80
0.26141 -0.25251 1.168 221 6 80
0.264086 -0.252943 1.17 222 6 80
0.26677 -0.253375 1.172 223 6 80
0.269461 -0.253808 1.174 223 6 80
0.27216 -0.25424 1.176 224 6 80
0.274867 -0.254672 1.178 225 6 80
0.277617 -0.255138 1.18015 226 6 80
0.280358 -0.255587 1.18223 227 6 80
0.283106 -0.256036 1.18431 227 6 80
0.285844 -0.256468 1.18631 228 6 80
0.288589 -0.256901 1.18831 229 6 80
0.291342 -0.257333 1.19031 230 6 80
0.294103 -0.257766 1.19231 231 6 80
0.29689 -0.258214 1.19438 231 6 80
0.299685 -0.258664 1.19646 232 6 80
0.302488 -0.259113 1.19854 233 6 80
0.3053 -0.259562 1.20062 234 6 80
0.308118 -0.260011 1.20269 235 6 80
0.310925 -0.260443 1.20469 235 6 80
0.31374 -0.260875 1.20669 236 6 80
0.316562 -0.261308 1.20869 237 6 80
0.319392 -0.26174 1.21069 238 6 80
0.32223 -0.262173 1.21269 239 6 80
0.325095 -0.262622 1.21477 239 6 80
0.32799 -0.263087 1.21692 240 6 80
0.330871 -0.263536 1.219 241 6 80
0.33374 -0.263969 1.221 242 6 80
0.336616 -0.264401 1.223 243 6 80
0.3395 -0.264833 1.225 243 6 80
0.342391 -0.265266 1.227 244 6 80
0.345291 -0.265698 1.229 245 6 80
0.348197 -0.266131 1.231 246 6 80
0.351133 -0.26658 1.23308 247 6 80
0.354099 -0.267045 1.23523 247 6 80
0.357052 -0.267494 1.23731 248 6 80
0.359989 -0.267927 1.23931 249 6 80
0.362935 -0.268359 1.24131 250 6 80
0.365888 -0.268791 1.24331 251 6 80
0.368848 -0.269224 1.24531 251 6 80
0.371816 -0.269656 1.24731 252 6 80
0.374792 -0.270088 1.24931 253 6 80
0.37766 -0.270438 1.25093 254 6 80
0.380254 -0.270588 1.25162 255 6 80
-0.184131 -0.129873 0.606074 0 7 80
-0.183186 -0.130021 0.606767 0 7 80
-0.182515 -0.130368 0.608384 1 7 80
-0.18193 -0.13078 0.610308 2 7 80
-0.18136 -0.131209 0.612308 3 7 80
-0.180782 -0.131637 0.614308 3 7 80
-0.180197 -0.132066 0.616308 4 7 80
-0.179626 -0.132511 0.618384 5 7 80
-0.179047 -0.132956 0.620461 6 7 80
-0.178461 -0.133401 0.622539 7 7 80
-0.177867 -0.133846 0.624616 7 7 80
-0.177264 -0.134291 0.626693 8 7 80
-0.176633 -0.13472 0.628693 9 7 80
-0.175993 -0.135148 0.630692 10 7 80
-0.175346 -0.135577 0.632693 11 7 80
-0.174692 -0.136006 0.634693 11 7 80
-0.174029 -0.136434 0.636693 12 7 80
-0.17338 -0.136879 0.63877 13 7 80
-0.172744 -0.137341 0.640923 14 7 80
-0.172079 -0.137786 0.643 15 7 80
-0.171386 -0.138214 0.645 15 7 80
-0.170685 -0.138643 0.647 16 7 80
-0.169976 -0.139071 0.649 17 7 80
-0.16926 -0.1395 0.651 18 7 80
-0.168536 -0.139929 0.653 19 7 80
-0.167805 -0.140357 0.655 19 7 80
-0.167105 -0.140819 0.657153 20 7 80
-0.166377 -0.141264 0.659231 21 7 80
-0.165642 -0.141709 0.661308 22 7 80
-0.164879 -0.142137 0.663308 23 7 80
-0.164109 -0.142566 0.665308 23 7 80
-0.163332 -0.142995 0.667308 24 7 80
-0.162546 -0.143423 0.669308 25 7 80
-0.161772 -0.143868 0.671384 26 7 80
-0.160989 -0.144313 0.673461 27 7 80
-0.160199 -0.144758 0.675539 27 7 80
-0.159401 -0.145204 0.677616 28 7 80
-0.158595 -0.145648 0.679693 29 7 80
-0.157763 -0.146077 0.681693 30 7 80
-0.156924 -0.146506 0.683693 31 7 80
-0.156077 -0.146934 0.685692 31 7 80
-0.155222 -0.147363 0.687693 32 7 80
-0.15436 -0.147791 0.689692 33 7 80
-0.153507 -0.148236 0.691769 34 7 80
-0.152663 -0.148698 0.693923 35 7 80
-0.151794 -0.149143 0.696 35 7 80
-0.150901 -0.149571 0.698 36 7 80
-0.15 -0.15 0.7 37 7 80
-0.149091 -0.150429 0.702 38 7 80
-0.148175 -0.150857 0.704 39 7 80
-0.147251 -0.151286 0.706 39 7 80
-0.14632 -0.151714 0.708 40 7 80
-0.145397 -0.152159 0.710077 41 7 80
-0.144481 -0.152621 0.712231 42 7 80
-0.143542 -0.153066 0.714308 43 7 80
-0.142579 -0.153494 0.716308 43 7 80
-0.141609 -0.153923 0.718308 44 7 80
-0.140631 -0.154352 0.720308 45 7 80
-0.139646 -0.15478 0.722308 46 7 80
-0.138653 -0.155209 0.724308 47 7 80
-0.137667 -0.155654 0.726384 47 7 80
-0.136673 -0.156099 0.728461 48 7 80
-0.135672 -0.156544 0.730539 49 7 80
-0.134662 -0.156989 0.732616 50 7 80
-0.133644 -0.157434 0.734693 51 7 80
-0.132605 -0.157863 0.736693 51 7 80
-0.131558 -0.158291 0.738693 52 7 80
-0.130503 -0.15872 0.740692 53 7 80
-0.129441 -0.159148 0.742693 54 7 80
-0.128371 -0.159577 0.744693 55 7 80
-0.127306 -0.160022 0.746769 55 7 80
-0.126247 -0.160484 0.748923 56 7 80
-0.125167 -0.160929 0.751 57 7 80
-0.124066 -0.161357 0.753 58 7 80
-0.122957 -0.161786 0.755 59 7 80
-0.121841 -0.162214 0.757 59 7 80
-0.120717 -0.162643 0.759 60 7 80
-0.119586 -0.163071 0.761 61 7 80
-0.118447 -0.1635 0.763 62 7 80
-0.117312 -0.163945 0.765077 63 7 80
-0.116181 -0.164407 0.767231 63 7 80
-0.11503 -0.164852 0.769308 64 7 80
-0.11386 -0.16528 0.771308 65 7 80
-0.112682 -0.165709 0.773308 66 7 80
-0.111497 -0.166137 0.775308 67 7 80
-0.110304 -0.166566 0.777308 67 7 80
-0.109103 -0.166994 0.779308 68 7 80
-0.107905 -0.167439 0.781384 69 7 80
-0.1067 -0.167885 0.783461 70 7 80
-0.105487 -0.16833 0.785539 71 7 80
-0.104265 -0.168775 0.787616 71 7 80
-0.103036 -0.16922 0.789693 72 7 80
-0.101789 -0.169648 0.791692 73 7 80
-0.100534 -0.170077 0.793692 74 7 80
-0.0992721 -0.170506 0.795693 75 7 80
-0.0980022 -0.170934 0.797693 75 7 80
-0.096734 -0.171379 0.79977 76 7 80
-0.095458 -0.171824 0.801847 77 7 80
-0.0941829 -0.172286 0.804 78 7 80
-0.0928819 -0.172714 0.806 79 7 80
-0.0915733 -0.173143 0.808 79 7 80
-0.0902572 -0.173571 0.81 80 7 80
-0.0889333 -0.174 0.812 81 7 80
-0.0876019 -0.174429 0.814 82 7 80
-0.0862629 -0.174857 0.816 83 7 80
-0.0849242 -0.175302 0.818077 83 7 80
-0.0835854 -0.175764 0.820231 84 7 80
-0.0822308 -0.176209 0.822308 85 7 80
-0.0808607 -0.176637 0.824308 86 7 80
-0.0794829 -0.177066 0.826308 87 7 80
-0.0780976 -0.177494 0.828308 87 7 80
-0.0767046 -0.177923 0.830308 88 7 80
-0.075304 -0.178352 0.832308 89 7 80
-0.0739026 -0.178797 0.834384 90 7 80
-0.0724933 -0.179242 0.836461 91 7 80
-0.0710762 -0.179687 0.838539 91 7 80
-0.0696511 -0.180132 0.840616 92 7 80
-0.068218 -0.180577 0.842693 93 7 80
-0.0667709 -0.181006 0.844693 94 7 80
-0.0653163 -0.181434 0.846693 95 7 80
-0.063854 -0.181863 0.848693 95 7 80
-0.0623841 -0.182291 0.850693 96 7 80
-0.0609066 -0.18272 0.852692 97 7 80
-0.0594268 -0.183165 0.854769 98 7 80
-0.0579443 -0.183626 0.856923 99 7 80
-0.0564486 -0.184071 0.859 99 7 80
-0.05494 -0.1845 0.861 100 7 80
-0.0534238 -0.184929 0.863 101 7 80
-0.0519 -0.185357 0.865 102 7 80
-0.0503686 -0.185786 0.867 103 7 80
-0.0488295 -0.186214 0.869 103 7 80
-0.0472829 -0.186643 0.871 104 7 80
-0.0457326 -0.187088 0.873077 105 7 80
-0.0441783 -0.187549 0.875231 106 7 80
-0.0426121 -0.187994 0.877308 107 7 80
-0.0410344 -0.188423 0.879308 107 7 80
-0.039449 -0.188852 0.881308 108 7 80
-0.037856 -0.18928 0.883308 109 7 80
-0.0362555 -0.189709 0.885308 110 7 80
-0.0346473 -0.190137 0.887308 111 7 80
-0.0330343 -0.190582 0.889384 111 7 80
-0.0314134 -0.191027 0.891461 112 7 80
-0.0297846 -0.191473 0.893539 113 7 80
-0.0281479 -0.191918 0.895616 114 7 80
-0.0265033 -0.192363 0.897692 115 7 80
-0.0248487 -0.192791 0.899693 115 7 80
-0.0231864 -0.19322 0.901693 116 7 80
-0.0215165 -0.193648 0.903693 117 7 80
-0.019839 -0.194077 0.905693 118 7 80
-0.0181539 -0.194506 0.907693 119 7 80
-0.0164625 -0.194951 0.90977 119 7 80
-0.0147645 -0.195412 0.911923 120 7 80
-0.0130571 -0.195857 0.914 121 7 80
-0.011341 -0.196286 0.916 122 7 80
-0.00961714 -0.196714 0.918 123 7 80
-0.00788572 -0.197143 0.92 123 7 80
-0.00614667 -0.197571 0.922 124 7 80
-0.0044 -0.198 0.924 125 7 80
-0.00264571 -0.198429 0.926 126 7 80
-0.000883956 -0.19889 0.928153 127 7 80
0.000885934 -0.199335 0.930231 127 7 80
0.00266374 -0.19978 0.932308 128 7 80
0.00444908 -0.200209 0.934308 129 7 80
0.00624205 -0.200637 0.936308 130 7 80
0.00804264 -0.201066 0.938308 131 7 80
0.00985084 -0.201494 0.940308 131 7 80
0.0116676 -0.201939 0.942384 132 7 80
0.0134923 -0.202385 0.944461 133 7 80
0.0153249 -0.20283 0.946539 134 7 80
0.0171654 -0.203275 0.948616 135 7 80
0.0190139 -0.20372 0.950693 135 7 80
0.0208685 -0.204148 0.952693 136 7 80
0.0227308 -0.204577 0.954692 137 7 80
0.0246007 -0.205006 0.956693 138 7 80
0.0264782 -0.205434 0.958692 139 7 80
0.0283633 -0.205863 0.960693 139 7 80
0.0302585 -0.206308 0.96277 140 7 80
0.0321641 -0.206769 0.964923 141 7 80
0.0340752 -0.207214 0.967 142 7 80
0.0359914 -0.207643 0.969 143 7 80
0.0379152 -0.208071 0.971 143 7 80
0.0398467 -0.2085 0.973 144 7 80
0.0417857 -0.208929 0.975 145 7 80
0.0437324 -0.209357 0.977 146 7 80
0.0456867 -0.209786 0.979 147 7 80
0.0476523 -0.210231 0.981077 147 7 80
0.0496297 -0.210692 0.983231 148 7 80
0.0516113 -0.211137 0.985308 149 7 80
0.0535967 -0.211566 0.987308 150 7 80
0.0555897 -0.211994 0.989308 151 7 80
0.0575903 -0.212423 0.991308 151 7 80
0.0595985 -0.212852 0.993308 152 7 80
0.0616143 -0.21328 0.995308 153 7 80
0.0636426 -0.213725 0.997384 154 7 80
0.0656789 -0.21417 0.999461 155 7 80
0.0677231 -0.214615 1.00154 155 7 80
0.0697752 -0.215061 1.00362 156 7 80
0.0718352 -0.215506 1.00569 157 7 80
0.0738975 -0.215934 1.00769 158 7 80
0.0759673 -0.216363 1.00969 159 7 80
0.0780449 -0.216791 1.01169 159 7 80
0.08013 -0.21722 1.01369 160 7 80
0.0822227 -0.217648 1.01569 161 7 80
0.0843295 -0.218093 1.01777 162 7 80
0.0864506 -0.218555 1.01992 163 7 80
0.0885733 -0.219 1.022 163 7 80
0.0906971 -0.219429 1.024 164 7 80
0.0928286 -0.219857 1.026 165 7 80
0.0949676 -0.220286 1.028 166 7 80
0.0971143 -0.220714 1.03 167 7 80
0.0992686 -0.221143 1.032 167 7 80
0.10143 -0.221571 1.034 168 7 80
0.103615 -0.222033 1.03615 169 7 80
0.105801 -0.222478 1.03823 170 7 80
0.107994 -0.222923 1.04031 171 7 80
0.110187 -0.223352 1.04231 171 7 80
0.112387 -0.22378 1.04431 172 7 80
0.114596 -0.224209 1.04631 173 7 80
0.116811 -0.224637 1.04831 174 7 80
0.119035 -0.225066 1.05031 175 7 80
0.121275 -0.225511 1.05238 175 7 80
0.123523 -0.225956 1.05446 176 7 80
0.125778 -0.226401 1.05654 177 7 80
0.128042 -0.226846 1.05862 178 7 80
0.130314 -0.227291 1.06069 179 7 80
0.132584 -0.22772 1.06269 179 7 80
0.134861 -0.228148 1.06469 180 7 80
0.137146 -0.228577 1.06669 181 7 80
0.139439 -0.229006 1.06869 182 7 80
0.141749 -0.229451 1.07077 183 7 80
0.144068 -0.229896 1.07285 183 7 80
0.146405 -0.230357 1.075 184 7 80
0.148729 -0.230786 1.077 185 7 80
0.15106 -0.231214 1.079 186 7 80
0.153399 -0.231643 1.081 187 7 80
0.155746 -0.232071 1.083 187 7 80
0.1581 -0.2325 1.085 188 7 80
0.160462 -0.232929 1.087 189 7 80
0.162843 -0.233374 1.08908 190 7 80
0.165243 -0.233835 1.09123 191 7 80
0.167641 -0.23428 1.09331 191 7 80
0.170033 -0.234709 1.09531 192 7 80
0.172434 -0.235137 1.09731 193 7 80
0.174842 -0.235566 1.09931 194 7 80
0.177258 -0.235994 1.10131 195 7 80
0.179682 -0.236423 1.10331 195 7 80
0.182125 -0.236868 1.10538 196 7 80
0.184577 -0.237313 1.10746 197 7 80
0.187037 -0.237758 1.10954 198 7 80
0.189504 -0.238203 1.11162 199 7 80
0.191979 -0.238648 1.11369 199 7 80
0.194449 -0.239077 1.11569 200 7 80
0.196927 -0.239506 1.11769 201 7 80
0.199412 -0.239934 1.11969 202 7 80
0.201905 -0.240363 1.12169 203 7 80
0.204405 -0.240791 1.12369 203 7 80
0.206927 -0.241236 1.12577 204 7 80
0.209471 -0.241698 1.12792 205 7 80
0.21201 -0.242143 1.13 206 7 80
0.214541 -0.242571 1.132 207 7 80
0.21708 -0.243 1.134 207 7 80
0.219627 -0.243429 1.136 208 7 80
0.222181 -0.243857 1.138 209 7 80
0.224743 -0.244286 1.14 210 7 80
0.227312 -0.244714 1.142 211 7 80
0.229905 -0.245159 1.14408 211 7 80
0.232521 -0.245621 1.14623 212 7 80
0.23513 -0.246066 1.14831 213 7 80
0.23773 -0.246494 1.15031 214 7 80
0.240338 -0.246923 1.15231 215 7 80
0.242954 -0.247352 1.15431 215 7 80
0.245578 -0.24778 1.15631 216 7 80
0.248209 -0.248209 1.15831 217 7 80
0.250864 -0.248654 1.16038 218 7 80
0.253527 -0.249099 1.16246 219 7 80
0.256199 -0.249544 1.16454 219 7 80
0.258878 -0.249989 1.16662 220 7 80
0.261564 -0.250434 1.16869 221 7 80
0.264242 -0.250863 1.17069 222 7 80
0.266927 -0.251291 1.17269 223 7 80
0.26962 -0.25172 1.17469 223 7 80
0.27232 -0.252148 1.17669 224 7 80
0.275046 -0.252593 1.17877 225 7 80
0.27778 -0.253039 1.18085 226 7 80
0.28054 -0.2535 1.183 227 7 80
0.283271 -0.253929 1.185 227 7 80
0.286011 -0.254357 1.187 228 7 80
0.288757 -0.254786 1.189 229 7 80
0.291511 -0.255214 1.191 230 7 80
0.294273 -0.255643 1.193 231 7 80
0.297043 -0.256071 1.195 231 7 80
0.299839 -0.256517 1.19708 232 7 80
0.302663 -0.256978 1.19923 233 7 80
0.305475 -0.257423 1.20131 234 7 80
0.308276 -0.257852 1.20331 235 7 80
0.311084 -0.25828 1.20531 235 7 80
0.3139 -0.258709 1.20731 236 7 80
0.316723 -0.259137 1.20931 237 7 80
0.319555 -0.259566 1.21131 238 7 80
0.322413 -0.260011 1.21338 239 7 80
0.325281 -0.260456 1.21546 239 7 80
0.328156 -0.260901 1.21754 240 7 80
0.331039 -0.261346 1.21962 241 7 80
0.333929 -0.261791 1.22169 242 7 80
0.336807 -0.26222 1.22369 243 7 80
0.339692 -0.262648 1.22569 243 7 80
0.342585 -0.263077 1.22769 244 7 80
0.345485 -0.263506 1.22969 245 7 80
0.348393 -0.263934 1.23169 246 7 80
0.351331 -0.264379 1.23377 247 7 80
0.354298 -0.264841 1.23592 247 7 80
0.357251 -0.265286 1.238 248 7 80
0.360191 -0.265714 1.24 249 7 80
0.363137 -0.266143 1.242 250 7 80
0.366091 -0.266571 1.244 251 7 80
0.369053 -0.267 1.246 251 7 80
0.372023 -0.267429 1.248 252 7 80
0.375 -0.267857 1.25 253 7 80
0.37787 -0.268204 1.25162 254 7 80
0.380464 -0.268352 1.25231 255 7 80
-0.184341 -0.128866 0.606766 0 8 80
-0.183395 -0.129013 0.607459 0 8 80
-0.182723 -0.129356 0.609076 1 8 80
-0.182136 -0.129765 0.611 2 8 80
-0.181565 -0.13019 0.613 3 8 80
-0.180986 -0.130614 0.615 3 8 80
-0.180399 -0.131039 0.617 4 8 80
-0.179805 -0.131464 0.619 5 8 80
-0.179225 -0.131905 0.621077 6 8 80
-0.178659 -0.132362 0.623231 7 8 80
-0.178064 -0.132803 0.625308 7 8 80
-0.177438 -0.133228 0.627308 8 8 80
-0.176805 -0.133653 0.629308 9 8 80
-0.176165 -0.134078 0.631308 10 8 80
-0.175517 -0.134502 0.633308 11 8 80
-0.174861 -0.134927 0.635308 11 8 80
-0.174218 -0.135368 0.637384 12 8 80
-0.173568 -0.135809 0.639461 13 8 80
-0.17291 -0.136251 0.641539 14 8 80
-0.172244 -0.136692 0.643616 15 8 80
-0.17157 -0.137133 0.645693 15 8 80
-0.170867 -0.137558 0.647693 16 8 80
-0.170158 -0.137982 0.649693 17 8 80
-0.16944 -0.138407 0.651692 18 8 80
-0.168715 -0.138832 0.653693 19 8 80
-0.168002 -0.139273 0.65577 19 8 80
-0.167281 -0.139714 0.657847 20 8 80
-0.166571 -0.140171 0.66 21 8 80
-0.165815 -0.140596 0.662 22 8 80
-0.165051 -0.141021 0.664 23 8 80
-0.16428 -0.141446 0.666 23 8 80
-0.163501 -0.14187 0.668 24 8 80
-0.162714 -0.142295 0.67 25 8 80
-0.16192 -0.14272 0.672 26 8 80
-0.161137 -0.143161 0.674077 27 8 80
-0.160363 -0.143618 0.676231 27 8 80
-0.159564 -0.14406 0.678308 28 8 80
-0.158738 -0.144484 0.680308 29 8 80
-0.157905 -0.144909 0.682308 30 8 80
-0.157065 -0.145334 0.684308 31 8 80
-0.156217 -0.145759 0.686308 31 8 80
-0.155361 -0.146183 0.688308 32 8 80
-0.154514 -0.146624 0.690384 33 8 80
-0.15366 -0.147066 0.692461 34 8 80
-0.152799 -0.147507 0.694539 35 8 80
-0.151929 -0.147948 0.696616 35 8 80
-0.151051 -0.148389 0.698693 36 8 80
-0.150148 -0.148814 0.700693 37 8 80
-0.149239 -0.149239 0.702693 38 8 80
-0.148321 -0.149663 0.704693 39 8 80
-0.147396 -0.150088 0.706692 39 8 80
-0.146463 -0.150513 0.708692 40 8 80
-0.145539 -0.150954 0.71077 41 8 80
-0.144622 -0.151411 0.712923 42 8 80
-0.143681 -0.151852 0.715 43 8 80
-0.142717 -0.152277 0.717 43 8 80
-0.141746 -0.152702 0.719 44 8 80
-0.140767 -0.153127 0.721 45 8 80
-0.13978 -0.153551 0.723 46 8 80
-0.138786 -0.153976 0.725 47 8 80
-0.137784 -0.154401 0.727 47 8 80
-0.136789 -0.154842 0.729077 48 8 80
-0.1358 -0.155299 0.731231 49 8 80
-0.134789 -0.155741 0.733308 50 8 80
-0.133756 -0.156165 0.735308 51 8 80
-0.132715 -0.15659 0.737308 51 8 80
-0.131667 -0.157015 0.739308 52 8 80
-0.130611 -0.15744 0.741308 53 8 80
-0.129548 -0.157864 0.743308 54 8 80
-0.12849 -0.158305 0.745384 55 8 80
-0.127424 -0.158747 0.747461 55 8 80
-0.126351 -0.159188 0.749539 56 8 80
-0.125269 -0.159629 0.751616 57 8 80
-0.12418 -0.16007 0.753693 58 8 80
-0.12307 -0.160495 0.755693 59 8 80
-0.121952 -0.160919 0.757693 59 8 80
-0.120827 -0.161344 0.759693 60 8 80
-0.119695 -0.161769 0.761693 61 8 80
-0.118554 -0.162194 0.763692 62 8 80
-0.117418 -0.162635 0.76577 63 8 80
-0.116285 -0.163092 0.767923 63 8 80
-0.115133 -0.163533 0.77 64 8 80
-0.113962 -0.163958 0.772 65 8 80
-0.112783 -0.164383 0.774 66 8 80
-0.111596 -0.164808 0.776 67 8 80
-0.110402 -0.165232 0.778 67 8 80
-0.1092 -0.165657 0.78 68 8 80
-0.10799 -0.166082 0.782 69 8 80
-0.106794 -0.166539 0.784153 70 8 80
-0.10558 -0.16698 0.786231 71 8 80
-0.104357 -0.167422 0.788308 71 8 80
-0.103116 -0.167846 0.790308 72 8 80
-0.101868 -0.168271 0.792308 73 8 80
-0.100612 -0.168696 0.794308 74 8 80
-0.0993489 -0.169121 0.796308 75 8 80
-0.0980872 -0.169562 0.798384 75 8 80
-0.0968177 -0.170003 0.800461 76 8 80
-0.0955404 -0.170444 0.802539 77 8 80
-0.0942551 -0.170885 0.804616 78 8 80
-0.0929617 -0.171326 0.806693 79 8 80
-0.0916518 -0.171751 0.808693 79 8 80
-0.0903343 -0.172176 0.810693 80 8 80
-0.0890092 -0.1726 0.812693 81 8 80
-0.0876764 -0.173025 0.814692 82 8 80
-0.0863361 -0.17345 0.816693 83 8 80
-0.0849961 -0.173891 0.81877 83 8 80
-0.083656 -0.174348 0.820923 84 8 80
-0.0823 -0.17479 0.823 85 8 80
-0.0809286 -0.175214 0.825 86 8 80
-0.0795495 -0.175639 0.827 87 8 80
-0.0781629 -0.176064 0.829 87 8 80
-0.0767686 -0.176489 0.831 88 8 80
-0.0753667 -0.176913 0.833 89 8 80
-0.0739572 -0.177338 0.835 90 8 80
-0.0725467 -0.177779 0.837077 91 8 80
-0.0711348 -0.178237 0.839231 91 8 80
-0.0697083 -0.178678 0.841308 92 8 80
-0.0682678 -0.179102 0.843308 93 8 80
-0.0668196 -0.179527 0.845308 94 8 80
-0.0653637 -0.179952 0.847308 95 8 80
-0.0639003 -0.180377 0.849308 95 8 80
-0.0624292 -0.180802 0.851308 96 8 80
-0.060956 -0.181242 0.853384 97 8 80
-0.0594749 -0.181684 0.855461 98 8 80
-0.057986 -0.182125 0.857539 99 8 80
-0.0564891 -0.182566 0.859616 99 8 80
-0.0549842 -0.183007 0.861692 100 8 80
-0.0534667 -0.183432 0.863693 101 8 80
-0.0519416 -0.183857 0.865693 102 8 80
-0.0504088 -0.184281 0.867693 103 8 80
-0.0488684 -0.184706 0.869693 103 8 80
-0.0473205 -0.185131 0.871693 104 8 80
-0.0457689 -0.185572 0.873769 105 8 80
-0.0442133 -0.186029 0.875923 106 8 80
-0.0426457 -0.186471 0.878 107 8 80
-0.0410667 -0.186895 0.88 107 8 80
-0.03948 -0.18732 0.882 108 8 80
-0.0378857 -0.187745 0.884 109 8 80
-0.0362838 -0.18817 0.886 110 8 80
-0.0346743 -0.188594 0.888 111 8 80
-0.0330571 -0.189019 0.89 111 8 80
-0.0314351 -0.18946 0.892077 112 8 80
-0.0298077 -0.189918 0.894231 113 8 80
-0.0281697 -0.190359 0.896308 114 8 80
-0.0265215 -0.190783 0.898308 115 8 80
-0.0248656 -0.191208 0.900308 115 8 80
-0.0232022 -0.191633 0.902308 116 8 80
-0.0215311 -0.192058 0.904308 117 8 80
-0.0198525 -0.192482 0.906308 118 8 80
-0.0181677 -0.192923 0.908384 119 8 80
-0.016475 -0.193365 0.910461 119 8 80
-0.0147744 -0.193806 0.912539 120 8 80
-0.0130659 -0.194247 0.914616 121 8 80
-0.0113495 -0.194688 0.916693 122 8 80
-0.0096244 -0.195113 0.918693 123 8 80
-0.00789165 -0.195538 0.920693 123 8 80
-0.00615128 -0.195962 0.922693 124 8 80
-0.0044033 -0.196387 0.924693 125 8 80
-0.00264791 -0.196828 0.92677 126 8 80
-0.000884616 -0.197269 0.928847 127 8 80
0.000886667 -0.197727 0.931 127 8 80
0.00266571 -0.198151 0.933 128 8 80
0.00445238 -0.198576 0.935 129 8 80
0.00624667 -0.199001 0.937 130 8 80
0.00804857 -0.199426 0.939 131 8 80
0.0098581 -0.199851 0.941 131 8 80
0.0116752 -0.200275 0.943 132 8 80
0.0135011 -0.200716 0.945077 133 8 80
0.0153361 -0.201174 0.947231 134 8 80
0.0171779 -0.201615 0.949308 135 8 80
0.0190262 -0.20204 0.951308 135 8 80
0.020882 -0.202464 0.953308 136 8 80
0.0227454 -0.202889 0.955308 137 8 80
0.0246165 -0.203314 0.957308 138 8 80
0.0264952 -0.203739 0.959308 139 8 80
0.0283837 -0.20418 0.961384 139 8 80
0.0302802 -0.204621 0.963461 140 8 80
0.0321846 -0.205062 0.965539 141 8 80
0.034097 -0.205503 0.967616 142 8 80
0.0360171 -0.205944 0.969693 143 8 80
0.0379423 -0.206369 0.971693 143 8 80
0.039875 -0.206794 0.973693 144 8 80
0.0418154 -0.207218 0.975692 145 8 80
0.0437634 -0.207643 0.977693 146 8 80
0.045719 -0.208068 0.979692 147 8 80
0.047686 -0.208509 0.98177 147 8 80
0.0496647 -0.208967 0.983923 148 8 80
0.0516476 -0.209408 0.986 149 8 80
0.0536343 -0.209832 0.988 150 8 80
0.0556286 -0.210257 0.99 151 8 80
0.0576305 -0.210682 0.992 151 8 80
0.05964 -0.211107 0.994 152 8 80
0.0616571 -0.211531 0.996 153 8 80
0.0636819 -0.211956 0.998 154 8 80
0.0657194 -0.212397 1.00008 155 8 80
0.0677699 -0.212855 1.00223 155 8 80
0.0698233 -0.213296 1.00431 156 8 80
0.0718791 -0.213721 1.00631 157 8 80
0.0739426 -0.214145 1.00831 158 8 80
0.0760136 -0.21457 1.01031 159 8 80
0.0780923 -0.214995 1.01231 159 8 80
0.0801786 -0.21542 1.01431 160 8 80
0.0822787 -0.215861 1.01638 161 8 80
0.0843868 -0.216302 1.01846 162 8 80
0.0865028 -0.216743 1.02054 163 8 80
0.0886267 -0.217184 1.02262 163 8 80
0.0907585 -0.217625 1.02469 164 8 80
0.0928913 -0.21805 1.02669 165 8 80
0.0950316 -0.218475 1.02869 166 8 80
0.0971796 -0.218899 1.03069 167 8 80
0.0993352 -0.219324 1.03269 167 8 80
0.101506 -0.219765 1.03477 168 8 80
0.103685 -0.220207 1.03685 169 8 80
0.105879 -0.220664 1.039 170 8 80
0.108066 -0.221089 1.041 171 8 80
0.11026 -0.221513 1.043 171 8 80
0.112462 -0.221938 1.045 172 8 80
0.114671 -0.222363 1.047 173 8 80
0.116889 -0.222788 1.049 174 8 80
0.119113 -0.223212 1.051 175 8 80
0.121346 -0.223637 1.053 175 8 80
0.123604 -0.224094 1.05515 176 8 80
0.125861 -0.224536 1.05723 177 8 80
0.128126 -0.224977 1.05931 178 8 80
0.130389 -0.225402 1.06131 179 8 80
0.13266 -0.225826 1.06331 179 8 80
0.134939 -0.226251 1.06531 180 8 80
0.137225 -0.226676 1.06731 181 8 80
0.139529 -0.227117 1.06938 182 8 80
0.141841 -0.227558 1.07146 183 8 80
0.144161 -0.227999 1.07354 183 8 80
0.146489 -0.22844 1.07562 184 8 80
0.148824 -0.228881 1.07769 185 8 80
0.151157 -0.229306 1.07969 186 8 80
0.153497 -0.229731 1.08169 187 8 80
0.155845 -0.230156 1.08369 187 8 80
0.158201 -0.23058 1.08569 188 8 80
0.160564 -0.231005 1.08769 189 8 80
0.162946 -0.231446 1.08977 190 8 80
0.165348 -0.231904 1.09192 191 8 80
0.167747 -0.232345 1.094 191 8 80
0.170141 -0.23277 1.096 192 8 80
0.172543 -0.233194 1.098 193 8 80
0.174952 -0.233619 1.1 194 8 80
0.17737 -0.234044 1.102 195 8 80
0.179794 -0.234469 1.104 195 8 80
0.182227 -0.234893 1.106 196 8 80
0.18468 -0.235334 1.10808 197 8 80
0.187153 -0.235792 1.11023 198 8 80
0.189622 -0.236233 1.11231 199 8 80
0.192085 -0.236658 1.11431 199 8 80
0.194556 -0.237083 1.11631 200 8 80
0.197035 -0.237507 1.11831 201 8 80
0.199521 -0.237932 1.12031 202 8 80
0.202015 -0.238357 1.12231 203 8 80
0.204531 -0.238798 1.12438 203 8 80
0.207054 -0.239239 1.12646 204 8 80
0.209586 -0.23968 1.12854 205 8 80
0.212125 -0.240121 1.13062 206 8 80
0.214672 -0.240562 1.13269 207 8 80
0.217213 -0.240987 1.13469 207 8 80
0.219761 -0.241412 1.13669 208 8 80
0.222316 -0.241837 1.13869 209 8 80
0.224879 -0.242261 1.14069 210 8 80
0.22745 -0.242686 1.14269 211 8 80
0.230044 -0.243127 1.14477 211 8 80
0.232662 -0.243585 1.14692 212 8 80
0.235271 -0.244026 1.149 213 8 80
0.237873 -0.24445 1.151 214 8 80
0.240483 -0.244875 1.153 215 8 80
0.2431 -0.2453 1.155 215 8 80
0.245725 -0.245725 1.157 216 8 80
0.248357 -0.24615 1.159 217 8 80
0.250997 -0.246574 1.161 218 8 80
0.253678 -0.247032 1.16315 219 8 80
0.256351 -0.247473 1.16523 219 8 80
0.259031 -0.247914 1.16731 220 8 80
0.261702 -0.248339 1.16931 221 8 80
0.264381 -0.248763 1.17131 222 8 80
0.267067 -0.249188 1.17331 223 8 80
0.269761 -0.249613 1.17531 223 8 80
0.27248 -0.250054 1.17738 224 8 80
0.275208 -0.250495 1.17946 225 8 80
0.277943 -0.250936 1.18154 226 8 80
0.280686 -0.251378 1.18362 227 8 80
0.283437 -0.251819 1.18569 227 8 80
0.286177 -0.252243 1.18769 228 8 80
0.288925 -0.252668 1.18969 229 8 80
0.291681 -0.253093 1.19169 230 8 80
0.294444 -0.253518 1.19369 231 8 80
0.297215 -0.253942 1.19569 231 8 80
0.300013 -0.254383 1.19777 232 8 80
0.302838 -0.254841 1.19992 233 8 80
0.305651 -0.255282 1.202 234 8 80
0.308453 -0.255707 1.204 235 8 80
0.311263 -0.256131 1.206 235 8 80
0.31408 -0.256556 1.208 236 8 80
0.316905 -0.256981 1.21 237 8 80
0.319737 -0.257406 1.212 238 8 80
0.322577 -0.257831 1.214 239 8 80
0.325445 -0.258272 1.21608 239 8 80
0.328342 -0.258729 1.21823 240 8 80
0.331226 -0.25917 1.22031 241 8 80
0.334097 -0.259595 1.22231 242 8 80
0.336976 -0.26002 1.22431 243 8 80
0.339862 -0.260444 1.22631 243 8 80
0.342756 -0.260869 1.22831 244 8 80
0.345658 -0.261294 1.23031 245 8 80
0.348589 -0.261735 1.23238 246 8 80
0.351528 -0.262176 1.23446 247 8 80
0.354475 -0.262617 1.23654 247 8 80
0.357429 -0.263059 1.23862 248 8 80
0.360392 -0.263499 1.24069 249 8 80
0.36334 -0.263924 1.24269 250 8 80
0.366295 -0.264349 1.24469 251 8 80
0.369258 -0.264774 1.24669 251 8 80
0.372229 -0.265198 1.24869 252 8 80
0.375185 -0.265607 1.25062 253 8 80
0.378078 -0.265967 1.25231 254 8 80
0.380698 -0.26613 1.25308 255 8 80
-0.184575 -0.127872 0.607535 0 9 80
-0.183604 -0.128001 0.608151 0 9 80
-0.182908 -0.128326 0.609693 1 9 80
-0.182343 -0.128747 0.611693 2 9 80
-0.18177 -0.129168 0.613693 3 9 80
-0.18119 -0.129589 0.615692 3 9 80
-0.180602 -0.13001 0.617693 4 9 80
-0.180006 -0.130431 0.619693 5 9 80
-0.179425 -0.130868 0.62177 6 9 80
-0.178858 -0.131321 0.623923 7 9 80
-0.178261 -0.131758 0.626 7 9 80
-0.177634 -0.132179 0.628 8 9 80
-0.177 -0.1326 0.63 9 9 80
-0.176358 -0.133021 0.632 10 9 80
-0.175709 -0.133442 0.634 11 9 80
-0.175051 -0.133863 0.636 11 9 80
-0.174387 -0.134284 0.638 12 9 80
-0.173756 -0.134737 0.640153 13 9 80
-0.173096 -0.135174 0.642231 14 9 80
-0.172429 -0.135611 0.644308 15 9 80
-0.171733 -0.136032 0.646308 15 9 80
-0.17103 -0.136453 0.648308 16 9 80
-0.170319 -0.136874 0.650308 17 9 80
-0.1696 -0.137295 0.652308 18 9 80
-0.168893 -0.137732 0.654384 19 9 80
-0.168179 -0.138169 0.656461 19 9 80
-0.167457 -0.138607 0.658539 20 9 80
-0.166727 -0.139044 0.660616 21 9 80
-0.165989 -0.139481 0.662692 22 9 80
-0.165224 -0.139902 0.664693 23 9 80
-0.164451 -0.140323 0.666693 23 9 80
-0.16367 -0.140744 0.668692 24 9 80
-0.162882 -0.141165 0.670693 25 9 80
-0.162087 -0.141586 0.672693 26 9 80
-0.161302 -0.142023 0.67477 27 9 80
-0.160527 -0.142476 0.676923 27 9 80
-0.159727 -0.142913 0.679 28 9 80
-0.1589 -0.143334 0.681 29 9 80
-0.158066 -0.143755 0.683 30 9 80
-0.157224 -0.144176 0.685 31 9 80
-0.156374 -0.144597 0.687 31 9 80
-0.155517 -0.145018 0.689 32 9 80
-0.154652 -0.145439 0.691 33 9 80
-0.153797 -0.145876 0.693077 34 9 80
-0.152951 -0.146329 0.695231 35 9 80
-0.152079 -0.146767 0.697308 35 9 80
-0.151184 -0.147188 0.699308 36 9 80
-0.15028 -0.147609 0.701308 37 9 80
-0.149369 -0.14803 0.703308 38 9 80
-0.14845 -0.14845 0.705308 39 9 80
-0.147524 -0.148871 0.707308 39 9 80
-0.146606 -0.149308 0.709384 40 9 80
-0.14568 -0.149746 0.711461 41 9 80
-0.144746 -0.150183 0.713539 42 9 80
-0.143805 -0.15062 0.715616 43 9 80
-0.142855 -0.151057 0.717692 43 9 80
-0.141882 -0.151478 0.719693 44 9 80
-0.140902 -0.151899 0.721693 45 9 80
-0.139914 -0.15232 0.723693 46 9 80
-0.138918 -0.152741 0.725693 47 9 80
-0.137915 -0.153162 0.727693 47 9 80
-0.136919 -0.153599 0.72977 48 9 80
-0.135929 -0.154052 0.731923 49 9 80
-0.134916 -0.15449 0.734 50 9 80
-0.133882 -0.15491 0.736 51 9 80
-0.13284 -0.155331 0.738 51 9 80
-0.13179 -0.155752 0.74 52 9 80
-0.130733 -0.156173 0.742 53 9 80
-0.129669 -0.156594 0.744 54 9 80
-0.128596 -0.157015 0.746 55 9 80
-0.127529 -0.157452 0.748077 55 9 80
-0.126467 -0.157906 0.750231 56 9 80
-0.125385 -0.158343 0.752308 57 9 80
-0.124281 -0.158764 0.754308 58 9 80
-0.12317 -0.159185 0.756308 59 9 80
-0.122051 -0.159606 0.758308 59 9 80
-0.120925 -0.160027 0.760308 60 9 80
-0.119791 -0.160448 0.762308 61 9 80
-0.118661 -0.160885 0.764384 62 9 80
-0.117524 -0.161322 0.766461 63 9 80
-0.116379 -0.161759 0.768539 63 9 80
-0.115225 -0.162196 0.770616 64 9 80
-0.114064 -0.162633 0.772693 65 9 80
-0.112884 -0.163054 0.774692 66 9 80
-0.111696 -0.163475 0.776693 67 9 80
-0.1105 -0.163896 0.778693 67 9 80
-0.109297 -0.164317 0.780693 68 9 80
-0.108097 -0.164754 0.78277 69 9 80
-0.106889 -0.165192 0.784847 70 9 80
-0.105683 -0.165645 0.787 71 9 80
-0.104449 -0.166066 0.789 71 9 80
-0.103207 -0.166487 0.791 72 9 80
-0.101957 -0.166908 0.793 73 9 80
-0.1007 -0.167329 0.795 74 9 80
-0.0994352 -0.16775 0.797 75 9 80
-0.0981629 -0.16817 0.799 75 9 80
-0.0968922 -0.168608 0.801077 76 9 80
-0.0956227 -0.169061 0.803231 77 9 80
-0.094336 -0.169498 0.805308 78 9 80
-0.0930326 -0.169919 0.807308 79 9 80
-0.0917215 -0.17034 0.809308 79 9 80
-0.0904028 -0.170761 0.811308 80 9 80
-0.0890765 -0.171182 0.813308 81 9 80
-0.0877426 -0.171603 0.815308 82 9 80
-0.0864092 -0.17204 0.817384 83 9 80
-0.0850679 -0.172477 0.819461 83 9 80
-0.0837187 -0.172914 0.821539 84 9 80
-0.0823616 -0.173352 0.823616 85 9 80
-0.0809965 -0.173789 0.825692 86 9 80
-0.0796161 -0.17421 0.827693 87 9 80
-0.0782282 -0.174631 0.829693 87 9 80
-0.0768325 -0.175051 0.831693 88 9 80
-0.0754293 -0.175472 0.833692 89 9 80
-0.0740185 -0.175893 0.835693 90 9 80
-0.0726067 -0.176331 0.83777 91 9 80
-0.0711935 -0.176784 0.839923 91 9 80
-0.0697657 -0.177221 0.842 92 9 80
-0.0683238 -0.177642 0.844 93 9 80
-0.0668743 -0.178063 0.846 94 9 80
-0.0654172 -0.178484 0.848 95 9 80
-0.0639524 -0.178905 0.85 95 9 80
-0.06248 -0.179326 0.852 96 9 80
-0.061 -0.179747 0.854 97 9 80
-0.0595177 -0.180184 0.856077 98 9 80
-0.0580327 -0.180637 0.858231 99 9 80
-0.0565345 -0.181074 0.860308 99 9 80
-0.0550234 -0.181495 0.862308 100 9 80
-0.0535048 -0.181916 0.864308 101 9 80
-0.0519785 -0.182337 0.866308 102 9 80
-0.0504445 -0.182758 0.868308 103 9 80
-0.048903 -0.183179 0.870308 103 9 80
-0.047358 -0.183616 0.872384 104 9 80
-0.0458051 -0.184053 0.874461 105 9 80
-0.0442443 -0.184491 0.876539 106 9 80
-0.0426756 -0.184928 0.878616 107 9 80
-0.041099 -0.185365 0.880693 107 9 80
-0.039511 -0.185786 0.882693 108 9 80
-0.0379154 -0.186207 0.884692 109 9 80
-0.0363122 -0.186628 0.886693 110 9 80
-0.0347013 -0.187049 0.888693 111 9 80
-0.0330829 -0.18747 0.890692 111 9 80
-0.0314595 -0.187907 0.89277 112 9 80
-0.0298308 -0.18836 0.894923 113 9 80
-0.0281914 -0.188797 0.897 114 9 80
-0.0265419 -0.189218 0.899 115 9 80
-0.0248848 -0.189639 0.901 115 9 80
-0.02322 -0.19006 0.903 116 9 80
-0.0215476 -0.190481 0.905 117 9 80
-0.0198676 -0.190902 0.907 118 9 80
-0.01818 -0.191323 0.909 119 9 80
-0.0164875 -0.191776 0.911153 119 9 80
-0.0147856 -0.192213 0.913231 120 9 80
-0.0130758 -0.19265 0.915308 121 9 80
-0.0113571 -0.193071 0.917308 122 9 80
-0.00963084 -0.193492 0.919308 123 9 80
-0.00789692 -0.193913 0.921308 123 9 80
-0.00615538 -0.194334 0.923308 124 9 80
-0.00440659 -0.194771 0.925384 125 9 80
-0.00264989 -0.195209 0.927461 126 9 80
-0.000885275 -0.195646 0.929539 127 9 80
0.000887254 -0.196083 0.931616 127 9 80
0.00266769 -0.19652 0.933692 128 9 80
0.00445568 -0.196941 0.935693 129 9 80
0.00625128 -0.197362 0.937693 130 9 80
0.00805451 -0.197783 0.939693 131 9 80
0.00986535 -0.198204 0.941693 131 9 80
0.0116838 -0.198625 0.943693 132 9 80
0.013511 -0.199062 0.94577 133 9 80
0.0153473 -0.199515 0.947923 134 9 80
0.0171905 -0.199952 0.95 135 9 80
0.01904 -0.200373 0.952 135 9 80
0.0208971 -0.200794 0.954 136 9 80
0.0227619 -0.201215 0.956 137 9 80
0.0246343 -0.201636 0.958 138 9 80
0.0265143 -0.202057 0.96 139 9 80
0.0284019 -0.202478 0.962 139 9 80
0.0302996 -0.202915 0.964077 140 9 80
0.0322077 -0.203369 0.966231 141 9 80
0.0341213 -0.203806 0.968308 142 9 80
0.03604 -0.204227 0.970308 143 9 80
0.0379663 -0.204648 0.972308 143 9 80
0.0399002 -0.205069 0.974308 144 9 80
0.0418418 -0.20549 0.976308 145 9 80
0.0437909 -0.20591 0.978308 146 9 80
0.0457512 -0.206347 0.980384 147 9 80
0.0477195 -0.206785 0.982461 147 9 80
0.0496958 -0.207222 0.984539 148 9 80
0.0516799 -0.207659 0.986616 149 9 80
0.0536719 -0.208096 0.988693 150 9 80
0.0556675 -0.208517 0.990693 151 9 80
0.0576707 -0.208938 0.992693 151 9 80
0.0596816 -0.209359 0.994693 152 9 80
0.0617 -0.20978 0.996692 153 9 80
0.0637261 -0.210201 0.998693 154 9 80
0.0657649 -0.210638 1.00077 155 9 80
0.0678167 -0.211091 1.00292 155 9 80
0.0698714 -0.211529 1.005 156 9 80
0.0719286 -0.21195 1.007 157 9 80
0.0739933 -0.21237 1.009 158 9 80
0.0760657 -0.212791 1.011 159 9 80
0.0781457 -0.213212 1.013 159 9 80
0.0802334 -0.213633 1.015 160 9 80
0.0823286 -0.214054 1.017 161 9 80
0.0844441 -0.214507 1.01915 162 9 80
0.0865615 -0.214945 1.02123 163 9 80
0.0886867 -0.215382 1.02331 163 9 80
0.090813 -0.215803 1.02531 164 9 80
0.0929469 -0.216224 1.02731 165 9 80
0.0950884 -0.216645 1.02931 166 9 80
0.0972376 -0.217066 1.03131 167 9 80
0.0994017 -0.217503 1.03338 167 9 80
0.101574 -0.21794 1.03546 168 9 80
0.103754 -0.218377 1.03754 169 9 80
0.105942 -0.218814 1.03962 170 9 80
0.108138 -0.219251 1.04169 171 9 80
0.110333 -0.219672 1.04369 171 9 80
0.112536 -0.220093 1.04569 172 9 80
0.114747 -0.220514 1.04769 173 9 80
0.116966 -0.220935 1.04969 174 9 80
0.119192 -0.221356 1.05169 175 9 80
0.121434 -0.221793 1.05377 175 9 80
0.123685 -0.222231 1.05585 176 9 80
0.125952 -0.222684 1.058 177 9 80
0.12821 -0.223105 1.06 178 9 80
0.130474 -0.223526 1.062 179 9 80
0.132747 -0.223947 1.064 179 9 80
0.135027 -0.224368 1.066 180 9 80
0.137314 -0.224789 1.068 181 9 80
0.13961 -0.22521 1.07 182 9 80
0.141923 -0.225647 1.07208 183 9 80
0.144254 -0.2261 1.07423 183 9 80
0.146583 -0.226537 1.07631 184 9 80
0.148909 -0.226958 1.07831 185 9 80
0.151243 -0.227379 1.08031 186 9 80
0.153585 -0.2278 1.08231 187 9 80
0.155934 -0.228221 1.08431 187 9 80
0.158291 -0.228642 1.08631 188 9 80
0.160666 -0.229079 1.08838 189 9 80
0.16305 -0.229516 1.09046 190 9 80
0.165442 -0.229953 1.09254 191 9 80
0.167841 -0.230391 1.09462 191 9 80
0.170248 -0.230828 1.09669 192 9 80
0.172652 -0.231249 1.09869 193 9 80
0.175063 -0.23167 1.10069 194 9 80
0.177481 -0.232091 1.10269 195 9 80
0.179907 -0.232511 1.10469 195 9 80
0.182341 -0.232932 1.10669 196 9 80
0.184795 -0.23337 1.10877 197 9 80
0.18727 -0.233823 1.11092 198 9 80
0.18974 -0.23426 1.113 199 9 80
0.192205 -0.234681 1.115 199 9 80
0.194677 -0.235102 1.117 200 9 80
0.197157 -0.235523 1.119 201 9 80
0.199645 -0.235944 1.121 202 9 80
0.20214 -0.236365 1.123 203 9 80
0.204643 -0.236786 1.125 203 9 80
0.207168 -0.237223 1.12708 204 9 80
0.209714 -0.237676 1.12923 205 9 80
0.212255 -0.238113 1.13131 206 9 80
0.214789 -0.238534 1.13331 207 9 80
0.21733 -0.238955 1.13531 207 9 80
0.219879 -0.239376 1.13731 208 9 80
0.222436 -0.239797 1.13931 209 9 80
0.225001 -0.240218 1.14131 210 9 80
0.227588 -0.240655 1.14338 211 9 80
0.230183 -0.241092 1.14546 211 9 80
0.232786 -0.24153 1.14754 212 9 80
0.235398 -0.241967 1.14962 213 9 80
0.238016 -0.242404 1.15169 214 9 80
0.240627 -0.242825 1.15369 215 9 80
0.243246 -0.243246 1.15569 215 9 80
0.245872 -0.243667 1.15769 216 9 80
0.248506 -0.244088 1.15969 217 9 80
0.251164 -0.244525 1.16177 218 9 80
0.253829 -0.244962 1.16385 219 9 80
0.25652 -0.245415 1.166 219 9 80
0.259185 -0.245836 1.168 220 9 80
0.261857 -0.246257 1.17 221 9 80
0.264537 -0.246678 1.172 222 9 80
0.267225 -0.247099 1.174 223 9 80
0.26992 -0.24752 1.176 223 9 80
0.272623 -0.247941 1.178 224 9 80
0.275351 -0.248378 1.18008 225 9 80
0.278106 -0.248831 1.18223 226 9 80
0.28085 -0.249269 1.18431 227 9 80
0.283584 -0.24969 1.18631 227 9 80
0.286326 -0.25011 1.18831 228 9 80
0.289075 -0.250531 1.19031 229 9 80
0.291832 -0.250952 1.19231 230 9 80
0.294596 -0.251373 1.19431 231 9 80
0.297387 -0.25181 1.19638 231 9 80
0.300186 -0.252248 1.19846 232 9 80
0.302993 -0.252685 1.20054 233 9 80
0.305808 -0.253122 1.20262 234 9 80
0.308631 -0.253559 1.20469 235 9 80
0.311442 -0.25398 1.20669 235 9 80
0.31426 -0.254401 1.20869 236 9 80
0.317086 -0.254822 1.21069 237 9 80
0.31992 -0.255243 1.21269 238 9 80
0.322761 -0.255664 1.21469 239 9 80
0.325631 -0.256101 1.21677 239 9 80
0.328529 -0.256554 1.21892 240 9 80
0.331414 -0.256991 1.221 241 9 80
0.334287 -0.257412 1.223 242 9 80
0.337167 -0.257833 1.225 243 9 80
0.340054 -0.258254 1.227 243 9 80
0.34295 -0.258675 1.229 244 9 80
0.345852 -0.259096 1.231 245 9 80
0.348763 -0.259517 1.233 246 9 80
0.351703 -0.259954 1.23508 247 9 80
0.354673 -0.260408 1.23723 247 9 80
0.357629 -0.260845 1.23931 248 9 80
0.36057 -0.261266 1.24131 249 9 80
0.363519 -0.261687 1.24331 250 9 80
0.366476 -0.262108 1.24531 251 9 80
0.369441 -0.262529 1.24731 251 9 80
0.372413 -0.26295 1.24931 252 9 80
0.375392 -0.26337 1.25131 253 9 80
0.378264 -0.263711 1.25293 254 9 80
0.380861 -0.263857 1.25362 255 9 80
-0.184739 -0.126827 0.608074 0 10 80
-0.18379 -0.126971 0.608767 0 10 80
-0.183115 -0.127309 0.610384 1 10 80
-0.182526 -0.12771 0.612308 2 10 80
-0.181952 -0.128127 0.614308 3 10 80
-0.181371 -0.128544 0.616308 3 10 80
-0.180781 -0.128961 0.618308 4 10 80
-0.180207 -0.129394 0.620384 5 10 80
-0.179624 -0.129828 0.622461 6 10 80
-0.179035 -0.130261 0.624539 7 10 80
-0.178436 -0.130694 0.626616 7 10 80
-0.17783 -0.131127 0.628693 8 10 80
-0.177195 -0.131544 0.630692 9 10 80
-0.176551 -0.131962 0.632693 10 10 80
-0.175901 -0.132379 0.634693 11 10 80
-0.175242 -0.132796 0.636693 11 10 80
-0.174597 -0.133229 0.63877 12 10 80
-0.173944 -0.133662 0.640847 13 10 80
-0.173304 -0.134111 0.643 14 10 80
-0.172614 -0.134529 0.645 15 10 80
-0.171917 -0.134946 0.647 15 10 80
-0.171212 -0.135363 0.649 16 10 80
-0.1705 -0.13578 0.651 17 10 80
-0.16978 -0.136197 0.653 18 10 80
-0.169052 -0.136614 0.655 19 10 80
-0.168337 -0.137047 0.657077 19 10 80
-0.167633 -0.137497 0.659231 20 10 80
-0.166901 -0.13793 0.661308 21 10 80
-0.166143 -0.138347 0.663308 22 10 80
-0.165376 -0.138764 0.665308 23 10 80
-0.164603 -0.139181 0.667308 23 10 80
-0.163821 -0.139598 0.669308 24 10 80
-0.163032 -0.140016 0.671308 25 10 80
-0.162253 -0.140449 0.673384 26 10 80
-0.161467 -0.140882 0.675461 27 10 80
-0.160674 -0.141315 0.677539 27 10 80
-0.159872 -0.141749 0.679616 28 10 80
-0.159062 -0.142182 0.681693 29 10 80
-0.158226 -0.142599 0.683693 30 10 80
-0.157383 -0.143016 0.685692 31 10 80
-0.156532 -0.143433 0.687693 31 10 80
-0.155673 -0.14385 0.689692 32 10 80
-0.154807 -0.144267 0.691693 33 10 80
-0.153951 -0.1447 0.69377 34 10 80
-0.153103 -0.14515 0.695923 35 10 80
-0.15223 -0.145583 0.698 35 10 80
-0.151333 -0.146 0.7 36 10 80
-0.150429 -0.146417 0.702 37 10 80
-0.149516 -0.146834 0.704 38 10 80
-0.148596 -0.147251 0.706 39 10 80
-0.147669 -0.147669 0.708 39 10 80
-0.146733 -0.148086 0.71 40 10 80
-0.145806 -0.148519 0.712077 41 10 80
-0.144887 -0.148968 0.714231 42 10 80
-0.143944 -0.149401 0.716308 43 10 80
-0.142977 -0.149818 0.718308 43 10 80
-0.142004 -0.150236 0.720308 44 10 80
-0.141022 -0.150653 0.722308 45 10 80
-0.140033 -0.15107 0.724308 46 10 80
-0.139036 -0.151487 0.726308 47 10 80
-0.138046 -0.15192 0.728384 47 10 80
-0.137048 -0.152353 0.730461 48 10 80
-0.136043 -0.152787 0.732539 49 10 80
-0.135029 -0.15322 0.734616 50 10 80
-0.134008 -0.153653 0.736693 51 10 80
-0.132965 -0.15407 0.738693 51 10 80
-0.131914 -0.154487 0.740692 52 10 80
-0.130855 -0.154904 0.742693 53 10 80
-0.129789 -0.155322 0.744693 54 10 80
-0.128716 -0.155739 0.746693 55 10 80
-0.127647 -0.156172 0.74877 55 10 80
