ply
format ascii 1.0
element vertex 1278
property float x
property float y
property float z
property uchar red
property uchar green
property uchar blue
end_header
0.468659 -0.157621 2.20669 216 87 240
0.473291 -0.157764 2.20869 217 87 240
0.477931 -0.157907 2.21069 218 87 240
0.482578 -0.158049 2.21269 219 87 240
0.487232 -0.158192 2.21469 219 87 240
0.491895 -0.158335 2.21669 220 87 240
0.496582 -0.158484 2.21877 221 87 240
0.501294 -0.158637 2.22092 222 87 240
0.505997 -0.158786 2.223 223 87 240
0.510691 -0.158929 2.225 223 87 240
0.515392 -0.159071 2.227 224 87 240
0.5201 -0.159214 2.229 225 87 240
0.524816 -0.159357 2.231 226 87 240
0.52954 -0.1595 2.233 227 87 240
0.534271 -0.159643 2.235 227 87 240
0.539029 -0.159791 2.23708 228 87 240
0.543813 -0.159945 2.23923 229 87 240
0.548587 -0.160093 2.24131 230 87 240
0.553349 -0.160236 2.24331 231 87 240
0.558119 -0.160379 2.24531 231 87 240
0.562897 -0.160522 2.24731 232 87 240
0.567682 -0.160665 2.24931 233 87 240
0.572475 -0.160808 2.25131 234 87 240
0.577296 -0.160956 2.25338 235 87 240
0.582124 -0.161104 2.25546 235 87 240
0.58696 -0.161253 2.25754 236 87 240
0.591804 -0.161401 2.25962 237 87 240
0.596656 -0.161549 2.26169 238 87 240
0.601496 -0.161692 2.26369 239 87 240
0.606343 -0.161835 2.26569 239 87 240
0.611197 -0.161978 2.26769 240 87 240
0.61606 -0.162121 2.26969 241 87 240
0.62095 -0.162269 2.27177 242 87 240
0.625849 -0.162418 2.27385 243 87 240
0.630777 -0.162571 2.276 243 87 240
0.635671 -0.162714 2.278 244 87 240
0.640571 -0.162857 2.28 245 87 240
0.64548 -0.163 2.282 246 87 240
0.650396 -0.163143 2.284 247 87 240
0.65532 -0.163286 2.286 247 87 240
0.660251 -0.163429 2.288 248 87 240
0.665213 -0.163577 2.29008 249 87 240
0.670205 -0.163731 2.29223 250 87 240
0.675182 -0.163879 2.29431 251 87 240
0.680144 -0.164022 2.29631 251 87 240
0.685115 -0.164165 2.29831 252 87 240
0.690092 -0.164308 2.30031 253 87 240
0.694939 -0.164418 2.30185 254 87 240
0.699511 -0.164462 2.30247 255 87 240
-0.503341 -0.115185 1.65677 0 88 240
-0.500395 -0.115233 1.65746 0 88 240
-0.497746 -0.115351 1.65915 1 88 240
-0.495205 -0.115495 1.66123 2 88 240
-0.492656 -0.115639 1.66331 3 88 240
-0.490076 -0.115779 1.66531 3 88 240
-0.487489 -0.115918 1.66731 4 88 240
-0.484894 -0.116057 1.66931 5 88 240
-0.482292 -0.116196 1.67131 6 88 240
-0.479682 -0.116335 1.67331 7 88 240
-0.477086 -0.116479 1.67538 7 88 240
-0.474482 -0.116623 1.67746 8 88 240
-0.47187 -0.116768 1.67954 9 88 240
-0.469251 -0.116912 1.68162 10 88 240
-0.466623 -0.117057 1.68369 11 88 240
-0.463967 -0.117196 1.68569 11 88 240
-0.461303 -0.117335 1.68769 12 88 240
-0.458631 -0.117474 1.68969 13 88 240
-0.455951 -0.117613 1.69169 14 88 240
-0.453264 -0.117752 1.69369 15 88 240
-0.45059 -0.117896 1.69577 15 88 240
-0.447928 -0.118046 1.69792 16 88 240
-0.445238 -0.11819 1.7 17 88 240
-0.44252 -0.11833 1.702 18 88 240
-0.439794 -0.118469 1.704 19 88 240
-0.437061 -0.118608 1.706 19 88 240
-0.43432 -0.118747 1.708 20 88 240
-0.431571 -0.118886 1.71 21 88 240
-0.428815 -0.119025 1.712 22 88 240
-0.426071 -0.119169 1.71408 23 88 240
-0.423337 -0.119319 1.71623 23 88 240
-0.420576 -0.119463 1.71831 24 88 240
-0.417789 -0.119602 1.72031 25 88 240
-0.414994 -0.119741 1.72231 26 88 240
-0.412192 -0.11988 1.72431 27 88 240
-0.409382 -0.120019 1.72631 27 88 240
-0.406564 -0.120159 1.72831 28 88 240
-0.403756 -0.120303 1.73038 29 88 240
-0.400941 -0.120447 1.73246 30 88 240
-0.398118 -0.120592 1.73454 31 88 240
-0.395287 -0.120736 1.73662 31 88 240
-0.392448 -0.120881 1.73869 32 88 240
-0.389584 -0.12102 1.74069 33 88 240
-0.386712 -0.121159 1.74269 34 88 240
-0.383832 -0.121298 1.74469 35 88 240
-0.380945 -0.121437 1.74669 35 88 240
-0.378067 -0.121581 1.74877 36 88 240
-0.375181 -0.121726 1.75085 37 88 240
-0.372304 -0.121875 1.753 38 88 240
-0.369386 -0.122014 1.755 39 88 240
-0.36646 -0.122153 1.757 39 88 240
-0.363527 -0.122292 1.759 40 88 240
-0.360586 -0.122431 1.761 41 88 240
-0.357637 -0.12257 1.763 42 88 240
-0.354681 -0.12271 1.765 43 88 240
-0.351732 -0.122854 1.76708 43 88 240
-0.348791 -0.123004 1.76923 44 88 240
-0.345827 -0.123148 1.77131 45 88 240
-0.34284 -0.123287 1.77331 46 88 240
-0.339845 -0.123426 1.77531 47 88 240
-0.336842 -0.123565 1.77731 47 88 240
-0.333832 -0.123704 1.77931 48 88 240
-0.330814 -0.123843 1.78131 49 88 240
-0.327803 -0.123988 1.78338 50 88 240
-0.324784 -0.124132 1.78546 51 88 240
-0.321757 -0.124277 1.78754 51 88 240
-0.318722 -0.124421 1.78962 52 88 240
-0.315679 -0.124565 1.79169 53 88 240
-0.312615 -0.124704 1.79369 54 88 240
-0.309543 -0.124843 1.79569 55 88 240
-0.306464 -0.124982 1.79769 55 88 240
-0.303377 -0.125121 1.79969 56 88 240
-0.300282 -0.125261 1.80169 57 88 240
-0.297193 -0.125405 1.80377 58 88 240
-0.294107 -0.125555 1.80592 59 88 240
-0.291002 -0.125699 1.808 59 88 240
-0.287876 -0.125838 1.81 60 88 240
-0.284743 -0.125977 1.812 61 88 240
-0.281602 -0.126116 1.814 62 88 240
-0.278453 -0.126255 1.816 63 88 240
-0.275297 -0.126394 1.818 63 88 240
-0.272133 -0.126533 1.82 64 88 240
-0.268973 -0.126678 1.82208 65 88 240
-0.265816 -0.126827 1.82423 66 88 240
-0.26264 -0.126972 1.82631 67 88 240
-0.259446 -0.127111 1.82831 67 88 240
-0.256243 -0.12725 1.83031 68 88 240
-0.253033 -0.127389 1.83231 69 88 240
-0.249815 -0.127528 1.83431 70 88 240
-0.24659 -0.127667 1.83631 71 88 240
-0.243367 -0.127811 1.83838 71 88 240
-0.240136 -0.127956 1.84046 72 88 240
-0.236898 -0.1281 1.84254 73 88 240
-0.233651 -0.128245 1.84462 74 88 240
-0.230397 -0.128389 1.84669 75 88 240
-0.227125 -0.128528 1.84869 75 88 240
-0.223846 -0.128667 1.85069 76 88 240
-0.220559 -0.128806 1.85269 77 88 240
-0.217264 -0.128945 1.85469 78 88 240
-0.213962 -0.129084 1.85669 79 88 240
-0.210661 -0.129229 1.85877 79 88 240
-0.20736 -0.129378 1.86092 80 88 240
-0.204043 -0.129523 1.863 81 88 240
-0.20071 -0.129662 1.865 82 88 240
-0.197369 -0.129801 1.867 83 88 240
-0.19402 -0.12994 1.869 83 88 240
-0.190664 -0.130079 1.871 84 88 240
-0.1873 -0.130218 1.873 85 88 240
-0.183929 -0.130357 1.875 86 88 240
-0.180564 -0.130507 1.87715 87 88 240
-0.177185 -0.130651 1.87923 87 88 240
-0.173797 -0.130796 1.88131 88 88 240
-0.170395 -0.130935 1.88331 89 88 240
-0.166984 -0.131074 1.88531 90 88 240
-0.163567 -0.131213 1.88731 91 88 240
-0.160141 -0.131352 1.88931 91 88 240
-0.156715 -0.131496 1.89138 92 88 240
-0.15328 -0.131641 1.89346 93 88 240
-0.149838 -0.131785 1.89554 94 88 240
-0.146388 -0.13193 1.89762 95 88 240
-0.142929 -0.132074 1.89969 95 88 240
-0.139457 -0.132213 1.90169 96 88 240
-0.135978 -0.132352 1.90369 97 88 240
-0.132491 -0.132491 1.90569 98 88 240
-0.128996 -0.13263 1.90769 99 88 240
-0.125494 -0.132769 1.90969 99 88 240
-0.121989 -0.132914 1.91177 100 88 240
-0.118481 -0.133063 1.91392 101 88 240
-0.11496 -0.133208 1.916 102 88 240
-0.111427 -0.133347 1.918 103 88 240
-0.107886 -0.133486 1.92 103 88 240
-0.104337 -0.133625 1.922 104 88 240
-0.100781 -0.133764 1.924 105 88 240
-0.0972172 -0.133903 1.926 106 88 240
-0.0936457 -0.134042 1.928 107 88 240
-0.0900703 -0.134186 1.93008 107 88 240
-0.0864903 -0.134336 1.93223 108 88 240
-0.0828989 -0.13448 1.93431 109 88 240
-0.0792964 -0.13462 1.93631 110 88 240
-0.0756863 -0.134759 1.93831 111 88 240
-0.0720686 -0.134898 1.94031 111 88 240
-0.0684432 -0.135037 1.94231 112 88 240
-0.0648103 -0.135176 1.94431 113 88 240
-0.0611721 -0.13532 1.94638 114 88 240
-0.057526 -0.135464 1.94846 115 88 240
-0.053872 -0.135609 1.95054 115 88 240
-0.0502101 -0.135753 1.95262 116 88 240
-0.0465403 -0.135898 1.95469 117 88 240
-0.0428609 -0.136037 1.95669 118 88 240
-0.0391739 -0.136176 1.95869 119 88 240
-0.0354792 -0.136315 1.96069 119 88 240
-0.0317769 -0.136454 1.96269 120 88 240
-0.028067 -0.136593 1.96469 121 88 240
-0.0243505 -0.136737 1.96677 122 88 240
-0.0206268 -0.136887 1.96892 123 88 240
-0.0168943 -0.137031 1.971 123 88 240
-0.0131533 -0.13717 1.973 124 88 240
-0.00940476 -0.13731 1.975 125 88 240
-0.00564857 -0.137449 1.977 126 88 240
-0.00188476 -0.137588 1.979 127 88 240
0.00188667 -0.137727 1.981 127 88 240
0.00566571 -0.137866 1.983 128 88 240
0.00945275 -0.13801 1.98508 129 88 240
0.0132482 -0.13816 1.98723 130 88 240
0.0170512 -0.138304 1.98931 131 88 240
0.0208613 -0.138443 1.99131 131 88 240
0.024679 -0.138582 1.99331 132 88 240
0.0285044 -0.138721 1.99531 133 88 240
0.0323374 -0.13886 1.99731 134 88 240
0.036178 -0.139 1.99931 135 88 240
0.0400277 -0.139144 2.00138 135 88 240
0.0438853 -0.139288 2.00346 136 88 240
0.0477509 -0.139433 2.00554 137 88 240
0.0516244 -0.139577 2.00762 138 88 240
0.0555058 -0.139721 2.00969 139 88 240
0.0593928 -0.139861 2.01169 139 88 240
0.0632875 -0.14 2.01369 140 88 240
0.0671898 -0.140139 2.01569 141 88 240
0.0710996 -0.140278 2.01769 142 88 240
0.07502 -0.140422 2.01977 143 88 240
0.0789483 -0.140567 2.02185 143 88 240
0.0828876 -0.140716 2.024 144 88 240
0.0868286 -0.140855 2.026 145 88 240
0.0907772 -0.140994 2.028 146 88 240
0.0947334 -0.141133 2.03 147 88 240
0.0986971 -0.141272 2.032 147 88 240
0.102669 -0.141411 2.034 148 88 240
0.106648 -0.14155 2.036 149 88 240
0.110638 -0.141695 2.03808 150 88 240
0.114642 -0.141845 2.04023 151 88 240
0.118648 -0.141989 2.04231 151 88 240
0.122658 -0.142128 2.04431 152 88 240
0.126676 -0.142267 2.04631 153 88 240
0.130702 -0.142406 2.04831 154 88 240
0.134735 -0.142545 2.05031 155 88 240
0.138775 -0.142684 2.05231 155 88 240
0.142829 -0.142829 2.05438 156 88 240
0.14689 -0.142973 2.05646 157 88 240
0.15096 -0.143117 2.05854 158 88 240
0.155037 -0.143262 2.06062 159 88 240
0.159122 -0.143406 2.06269 159 88 240
0.163209 -0.143545 2.06469 160 88 240
0.167304 -0.143684 2.06669 161 88 240
0.171406 -0.143823 2.06869 162 88 240
0.175516 -0.143962 2.07069 163 88 240
0.179633 -0.144101 2.07269 163 88 240
0.183765 -0.144246 2.07477 164 88 240
0.187912 -0.144396 2.07692 165 88 240
0.19206 -0.14454 2.079 166 88 240
0.196209 -0.144679 2.081 167 88 240
0.200365 -0.144818 2.083 167 88 240
0.204529 -0.144957 2.085 168 88 240
0.2087 -0.145096 2.087 169 88 240
0.212879 -0.145235 2.089 170 88 240
0.217066 -0.145374 2.091 171 88 240
0.221268 -0.145519 2.09308 171 88 240
0.225487 -0.145668 2.09523 172 88 240
0.229705 -0.145813 2.09731 173 88 240
0.233923 -0.145952 2.09931 174 88 240
0.238148 -0.146091 2.10131 175 88 240
0.242381 -0.14623 2.10331 175 88 240
0.246622 -0.146369 2.10531 176 88 240
0.25087 -0.146508 2.10731 177 88 240
0.255135 -0.146652 2.10938 178 88 240
0.259408 -0.146797 2.11146 179 88 240
0.263689 -0.146941 2.11354 179 88 240
0.267978 -0.147086 2.11562 180 88 240
0.272275 -0.14723 2.11769 181 88 240
0.276569 -0.147369 2.11969 182 88 240
0.280872 -0.147508 2.12169 183 88 240
0.285182 -0.147647 2.12369 183 88 240
0.289499 -0.147786 2.12569 184 88 240
0.293824 -0.147925 2.12769 185 88 240
0.298168 -0.14807 2.12977 186 88 240
0.30253 -0.148219 2.13192 187 88 240
0.30689 -0.148364 2.134 187 88 240
0.311246 -0.148503 2.136 188 88 240
0.31561 -0.148642 2.138 189 88 240
0.319981 -0.148781 2.14 190 88 240
0.32436 -0.14892 2.142 191 88 240
0.328747 -0.149059 2.144 191 88 240
0.333141 -0.149198 2.146 192 88 240
0.337567 -0.149348 2.14815 193 88 240
0.341989 -0.149492 2.15023 194 88 240
0.346419 -0.149637 2.15231 195 88 240
0.350844 -0.149776 2.15431 195 88 240
0.355277 -0.149915 2.15631 196 88 240
0.359718 -0.150054 2.15831 197 88 240
0.364166 -0.150193 2.16031 198 88 240
0.368635 -0.150337 2.16238 199 88 240
0.373112 -0.150482 2.16446 199 88 240
0.377597 -0.150626 2.16654 200 88 240
0.38209 -0.15077 2.16862 201 88 240
0.38659 -0.150915 2.17069 202 88 240
0.391085 -0.151054 2.17269 203 88 240
0.395587 -0.151193 2.17469 203 88 240
0.400097 -0.151332 2.17669 204 88 240
0.404614 -0.151471 2.17869 205 88 240
0.409139 -0.15161 2.18069 206 88 240
0.413687 -0.151754 2.18277 207 88 240
0.418257 -0.151904 2.18492 207 88 240
0.42282 -0.152049 2.187 208 88 240
0.427376 -0.152188 2.189 209 88 240
0.43194 -0.152327 2.191 210 88 240
0.436511 -0.152466 2.193 211 88 240
0.441091 -0.152605 2.195 211 88 240
0.445677 -0.152744 2.197 212 88 240
0.450271 -0.152883 2.199 213 88 240
0.454889 -0.153027 2.20108 214 88 240
0.459531 -0.153177 2.20323 215 88 240
0.464165 -0.153321 2.20531 215 88 240
0.46879 -0.15346 2.20731 216 88 240
0.473423 -0.1536 2.20931 217 88 240
0.478064 -0.153739 2.21131 218 88 240
0.482712 -0.153878 2.21331 219 88 240
0.487368 -0.154017 2.21531 219 88 240
0.492048 -0.154161 2.21738 220 88 240
0.496737 -0.154305 2.21946 221 88 240
0.501433 -0.15445 2.22154 222 88 240
0.506138 -0.154594 2.22362 223 88 240
0.510849 -0.154739 2.22569 223 88 240
0.515552 -0.154878 2.22769 224 88 240
0.520262 -0.155017 2.22969 225 88 240
0.524979 -0.155156 2.23169 226 88 240
0.529704 -0.155295 2.23369 227 88 240
0.534437 -0.155434 2.23569 227 88 240
0.539196 -0.155578 2.23777 228 88 240
0.543981 -0.155728 2.23992 229 88 240
0.548756 -0.155872 2.242 230 88 240
0.55352 -0.156011 2.244 231 88 240
0.558291 -0.156151 2.246 231 88 240
0.563071 -0.15629 2.248 232 88 240
0.567857 -0.156429 2.25 233 88 240
0.572652 -0.156568 2.252 234 88 240
0.577453 -0.156707 2.254 235 88 240
0.582302 -0.156856 2.25615 235 88 240
0.58714 -0.157001 2.25823 236 88 240
0.591985 -0.157145 2.26031 237 88 240
0.596818 -0.157284 2.26231 238 88 240
0.601659 -0.157423 2.26431 239 88 240
0.606507 -0.157562 2.26631 239 88 240
0.611363 -0.157701 2.26831 240 88 240
0.616247 -0.157846 2.27038 241 88 240
0.621139 -0.15799 2.27246 242 88 240
0.62604 -0.158135 2.27454 243 88 240
0.630948 -0.158279 2.27662 243 88 240
0.635864 -0.158423 2.27869 244 88 240
0.640766 -0.158562 2.28069 245 88 240
0.645676 -0.158702 2.28269 246 88 240
0.650593 -0.158841 2.28469 247 88 240
0.655519 -0.15898 2.28669 247 88 240
0.660451 -0.159119 2.28869 248 88 240
0.665414 -0.159263 2.29077 249 88 240
0.670407 -0.159413 2.29292 250 88 240
0.675386 -0.159557 2.295 251 88 240
0.68035 -0.159696 2.297 251 88 240
0.685321 -0.159835 2.299 252 88 240
0.690277 -0.159969 2.30092 253 88 240
0.695148 -0.160081 2.30254 254 88 240
0.699744 -0.16013 2.30323 255 88 240
-0.503575 -0.112081 1.65753 0 89 240
-0.500604 -0.112123 1.65815 0 89 240
-0.497931 -0.112232 1.65977 1 89 240
-0.495411 -0.112378 1.66192 2 89 240
-0.492861 -0.112518 1.664 3 89 240
-0.49028 -0.112653 1.666 3 89 240
-0.487691 -0.112789 1.668 4 89 240
-0.485095 -0.112924 1.67 5 89 240
-0.482491 -0.113059 1.672 6 89 240
-0.47988 -0.113194 1.674 7 89 240
-0.477261 -0.11333 1.676 7 89 240
-0.474656 -0.11347 1.67808 8 89 240
-0.472065 -0.113616 1.68023 9 89 240
-0.469444 -0.113756 1.68231 10 89 240
-0.466794 -0.113891 1.68431 11 89 240
-0.464136 -0.114027 1.68631 11 89 240
-0.461471 -0.114162 1.68831 12 89 240
-0.458798 -0.114297 1.69031 13 89 240
-0.456117 -0.114432 1.69231 14 89 240
-0.453449 -0.114573 1.69438 15 89 240
-0.450774 -0.114713 1.69646 15 89 240
-0.448091 -0.114854 1.69854 16 89 240
-0.4454 -0.114994 1.70062 17 89 240
-0.4427 -0.115134 1.70269 18 89 240
-0.439973 -0.11527 1.70469 19 89 240
-0.437238 -0.115405 1.70669 19 89 240
-0.434496 -0.11554 1.70869 20 89 240
-0.431746 -0.115675 1.71069 21 89 240
-0.428989 -0.115811 1.71269 22 89 240
-0.426243 -0.115951 1.71477 23 89 240
-0.423508 -0.116097 1.71692 23 89 240
-0.420746 -0.116237 1.719 24 89 240
-0.417957 -0.116372 1.721 25 89 240
-0.415161 -0.116508 1.723 26 89 240
-0.412357 -0.116643 1.725 27 89 240
-0.409546 -0.116778 1.727 27 89 240
-0.406727 -0.116913 1.729 28 89 240
-0.4039 -0.117049 1.731 29 89 240
-0.401101 -0.117194 1.73315 30 89 240
-0.398277 -0.117335 1.73523 31 89 240
-0.395444 -0.117475 1.73731 31 89 240
-0.392587 -0.11761 1.73931 32 89 240
-0.389721 -0.117746 1.74131 33 89 240
-0.386848 -0.117881 1.74331 34 89 240
-0.383968 -0.118016 1.74531 35 89 240
-0.381096 -0.118156 1.74738 35 89 240
-0.378217 -0.118297 1.74946 36 89 240
-0.37533 -0.118437 1.75154 37 89 240
-0.372435 -0.118578 1.75362 38 89 240
-0.369532 -0.118718 1.75569 39 89 240
-0.366604 -0.118853 1.75769 39 89 240
-0.36367 -0.118989 1.75969 40 89 240
-0.360728 -0.119124 1.76169 41 89 240
-0.357778 -0.119259 1.76369 42 89 240
-0.35482 -0.119394 1.76569 43 89 240
-0.35187 -0.119535 1.76777 43 89 240
-0.348928 -0.119681 1.76992 44 89 240
-0.345962 -0.119821 1.772 45 89 240
-0.342973 -0.119956 1.774 46 89 240
-0.339977 -0.120091 1.776 47 89 240
-0.336973 -0.120227 1.778 47 89 240
-0.333962 -0.120362 1.78 48 89 240
-0.330943 -0.120497 1.782 49 89 240
-0.327916 -0.120632 1.784 50 89 240
-0.324896 -0.120773 1.78608 51 89 240
-0.321882 -0.120918 1.78823 51 89 240
-0.318845 -0.121059 1.79031 52 89 240
-0.315788 -0.121194 1.79231 53 89 240
-0.312722 -0.121329 1.79431 54 89 240
-0.309649 -0.121465 1.79631 55 89 240
-0.306569 -0.1216 1.79831 55 89 240
-0.30348 -0.121735 1.80031 56 89 240
-0.300397 -0.121875 1.80238 57 89 240
-0.297307 -0.122016 1.80446 58 89 240
-0.294208 -0.122156 1.80654 59 89 240
-0.291101 -0.122297 1.80862 59 89 240
-0.287986 -0.122437 1.81069 60 89 240
-0.284852 -0.122573 1.81269 61 89 240
-0.281709 -0.122708 1.81469 62 89 240
-0.27856 -0.122843 1.81669 63 89 240
-0.275402 -0.122978 1.81869 63 89 240
-0.272237 -0.123114 1.82069 64 89 240
-0.269076 -0.123254 1.82277 65 89 240
-0.265917 -0.1234 1.82492 66 89 240
-0.26274 -0.12354 1.827 67 89 240
-0.259544 -0.123675 1.829 67 89 240
-0.25634 -0.12381 1.831 68 89 240
-0.253129 -0.123946 1.833 69 89 240
-0.24991 -0.124081 1.835 70 89 240
-0.246683 -0.124216 1.837 71 89 240
-0.243449 -0.124351 1.839 71 89 240
-0.240217 -0.124492 1.84108 72 89 240
-0.236987 -0.124638 1.84323 73 89 240
-0.233739 -0.124778 1.84531 74 89 240
-0.230474 -0.124913 1.84731 75 89 240
-0.227201 -0.125048 1.84931 75 89 240
-0.22392 -0.125184 1.85131 76 89 240
-0.220632 -0.125319 1.85331 77 89 240
-0.217336 -0.125454 1.85531 78 89 240
-0.214041 -0.125595 1.85738 79 89 240
-0.210739 -0.125735 1.85946 79 89 240
-0.207429 -0.125875 1.86154 80 89 240
-0.20411 -0.126016 1.86362 81 89 240
-0.200784 -0.126156 1.86569 82 89 240
-0.197442 -0.126292 1.86769 83 89 240
-0.194092 -0.126427 1.86969 83 89 240
-0.190734 -0.126562 1.87169 84 89 240
-0.187369 -0.126697 1.87369 85 89 240
-0.184004 -0.126838 1.87577 86 89 240
-0.180631 -0.126978 1.87785 87 89 240
-0.177257 -0.127124 1.88 87 89 240
-0.173861 -0.127259 1.882 88 89 240
-0.170457 -0.127394 1.884 89 89 240
-0.167046 -0.12753 1.886 90 89 240
-0.163627 -0.127665 1.888 91 89 240
-0.1602 -0.1278 1.89 91 89 240
-0.156766 -0.127935 1.892 92 89 240
-0.15333 -0.128076 1.89408 93 89 240
-0.149893 -0.128221 1.89623 94 89 240
-0.146441 -0.128362 1.89831 95 89 240
-0.142976 -0.128497 1.90031 95 89 240
-0.139503 -0.128632 1.90231 96 89 240
-0.136022 -0.128767 1.90431 97 89 240
-0.132534 -0.128903 1.90631 98 89 240
-0.129038 -0.129038 1.90831 99 89 240
-0.12554 -0.129178 1.91038 99 89 240
-0.122033 -0.129319 1.91246 100 89 240
-0.118519 -0.129459 1.91454 101 89 240
-0.114997 -0.1296 1.91662 102 89 240
-0.111467 -0.12974 1.91869 103 89 240
-0.107925 -0.129875 1.92069 103 89 240
-0.104375 -0.130011 1.92269 104 89 240
-0.100817 -0.130146 1.92469 105 89 240
-0.0972521 -0.130281 1.92669 106 89 240
-0.0936794 -0.130416 1.92869 107 89 240
-0.0901026 -0.130557 1.93077 107 89 240
-0.0865213 -0.130702 1.93292 108 89 240
-0.0829286 -0.130843 1.935 109 89 240
-0.0793248 -0.130978 1.937 110 89 240
-0.0757133 -0.131113 1.939 111 89 240
-0.0720943 -0.131249 1.941 111 89 240
-0.0684676 -0.131384 1.943 112 89 240
-0.0648333 -0.131519 1.945 113 89 240
-0.0611914 -0.131654 1.947 114 89 240
-0.0575442 -0.131795 1.94908 115 89 240
-0.0538911 -0.13194 1.95123 115 89 240
-0.0502279 -0.132081 1.95331 116 89 240
-0.0465549 -0.132216 1.95531 117 89 240
-0.0428744 -0.132351 1.95731 118 89 240
-0.0391862 -0.132487 1.95931 119 89 240
-0.0354903 -0.132622 1.96131 119 89 240
-0.0317869 -0.132757 1.96331 120 89 240
-0.0280769 -0.132897 1.96538 121 89 240
-0.024359 -0.133038 1.96746 122 89 240
-0.0206333 -0.133178 1.96954 123 89 240
-0.0168996 -0.133319 1.97162 123 89 240
-0.013158 -0.133459 1.97369 124 89 240
-0.00940806 -0.133594 1.97569 125 89 240
-0.00565055 -0.13373 1.97769 126 89 240
-0.00188542 -0.133865 1.97969 127 89 240
0.00188733 -0.134 1.98169 127 89 240
0.00566769 -0.134135 1.98369 128 89 240
0.00945605 -0.134276 1.98577 129 89 240
0.0132528 -0.134421 1.98792 130 89 240
0.0170571 -0.134562 1.99 131 89 240
0.0208686 -0.134697 1.992 131 89 240
0.0246876 -0.134832 1.994 132 89 240
0.0285143 -0.134968 1.996 133 89 240
0.0323486 -0.135103 1.998 134 89 240
0.0361905 -0.135238 2 135 89 240
0.04004 -0.135373 2.002 135 89 240
0.0439005 -0.135519 2.00415 136 89 240
0.0477674 -0.135659 2.00623 137 89 240
0.0516422 -0.1358 2.00831 138 89 240
0.0555228 -0.135935 2.01031 139 89 240
0.059411 -0.13607 2.01231 139 89 240
0.0633068 -0.136206 2.01431 140 89 240
0.0672103 -0.136341 2.01631 141 89 240
0.071124 -0.136481 2.01838 142 89 240
0.0750457 -0.136622 2.02046 143 89 240
0.0789753 -0.136762 2.02254 143 89 240
0.0829129 -0.136903 2.02462 144 89 240
0.0868583 -0.137043 2.02669 145 89 240
0.0908081 -0.137178 2.02869 146 89 240
0.0947657 -0.137314 2.03069 147 89 240
0.0987308 -0.137449 2.03269 147 89 240
0.102704 -0.137584 2.03469 148 89 240
0.106684 -0.137719 2.03669 149 89 240
0.110676 -0.13786 2.03877 150 89 240
0.11468 -0.138005 2.04092 151 89 240
0.118689 -0.138146 2.043 151 89 240
0.1227 -0.138281 2.045 152 89 240
0.126719 -0.138416 2.047 153 89 240
0.130746 -0.138551 2.049 154 89 240
0.13478 -0.138687 2.051 155 89 240
0.138822 -0.138822 2.053 155 89 240
0.142871 -0.138957 2.055 156 89 240
0.146934 -0.139098 2.05708 157 89 240
0.15101 -0.139243 2.05923 158 89 240
0.155089 -0.139384 2.06131 159 89 240
0.159169 -0.139519 2.06331 159 89 240
0.163258 -0.139654 2.06531 160 89 240
0.167353 -0.139789 2.06731 161 89 240
0.171457 -0.139925 2.06931 162 89 240
0.175568 -0.14006 2.07131 163 89 240
0.179693 -0.1402 2.07338 163 89 240
0.183827 -0.140341 2.07546 164 89 240
0.187968 -0.140481 2.07754 165 89 240
0.192117 -0.140622 2.07962 166 89 240
0.196274 -0.140762 2.08169 167 89 240
0.200431 -0.140897 2.08369 167 89 240
0.204597 -0.141033 2.08569 168 89 240
0.208769 -0.141168 2.08769 169 89 240
0.21295 -0.141303 2.08969 170 89 240
0.217138 -0.141438 2.09169 171 89 240
0.221341 -0.141579 2.09377 171 89 240
0.225561 -0.141724 2.09592 172 89 240
0.229781 -0.141865 2.098 173 89 240
0.234 -0.142 2.1 174 89 240
0.238227 -0.142135 2.102 175 89 240
0.242461 -0.14227 2.104 175 89 240
0.246703 -0.142406 2.106 176 89 240
0.250952 -0.142541 2.108 177 89 240
0.25521 -0.142676 2.11 178 89 240
0.259484 -0.142817 2.11208 179 89 240
0.263775 -0.142962 2.11423 179 89 240
0.268066 -0.143103 2.11631 180 89 240
0.272354 -0.143238 2.11831 181 89 240
0.27665 -0.143373 2.12031 182 89 240
0.280953 -0.143508 2.12231 183 89 240
0.285264 -0.143644 2.12431 183 89 240
0.289583 -0.143779 2.12631 184 89 240
0.29392 -0.143919 2.12838 185 89 240
0.298265 -0.14406 2.13046 186 89 240
0.302617 -0.1442 2.13254 187 89 240
0.306978 -0.144341 2.13462 187 89 240
0.311347 -0.144481 2.13669 188 89 240
0.315712 -0.144616 2.13869 189 89 240
0.320085 -0.144752 2.14069 190 89 240
0.324465 -0.144887 2.14269 191 89 240
0.328853 -0.145022 2.14469 191 89 240
0.33326 -0.145163 2.14677 192 89 240
0.337676 -0.145303 2.14885 193 89 240
0.342111 -0.145449 2.151 194 89 240
0.34653 -0.145584 2.153 195 89 240
0.350957 -0.145719 2.155 195 89 240
0.355391 -0.145854 2.157 196 89 240
0.359833 -0.14599 2.159 197 89 240
0.364283 -0.146125 2.161 198 89 240
0.36874 -0.14626 2.163 199 89 240
0.373218 -0.1464 2.16508 199 89 240
0.377717 -0.146546 2.16723 200 89 240
0.382211 -0.146687 2.16931 201 89 240
0.3867 -0.146822 2.17131 202 89 240
0.391195 -0.146957 2.17331 203 89 240
0.395699 -0.147092 2.17531 203 89 240
0.40021 -0.147227 2.17731 204 89 240
0.404729 -0.147363 2.17931 205 89 240
0.409269 -0.147503 2.18138 206 89 240
0.413818 -0.147644 2.18346 207 89 240
0.418375 -0.147784 2.18554 207 89 240
0.422939 -0.147925 2.18762 208 89 240
0.427511 -0.148065 2.18969 209 89 240
0.432077 -0.1482 2.19169 210 89 240
0.436649 -0.148335 2.19369 211 89 240
0.44123 -0.148471 2.19569 211 89 240
0.445818 -0.148606 2.19769 212 89 240
0.450413 -0.148741 2.19969 213 89 240
0.455032 -0.148882 2.20177 214 89 240
0.459675 -0.149027 2.20392 215 89 240
0.464311 -0.149168 2.206 215 89 240
0.468937 -0.149303 2.208 216 89 240
0.473571 -0.149438 2.21 217 89 240
0.478213 -0.149573 2.212 218 89 240
0.482863 -0.149709 2.214 219 89 240
0.48752 -0.149844 2.216 219 89 240
0.492185 -0.149979 2.218 220 89 240
0.496874 -0.150119 2.22008 221 89 240
0.501589 -0.150265 2.22223 222 89 240
0.506295 -0.150406 2.22431 223 89 240
0.510991 -0.150541 2.22631 223 89 240
0.515694 -0.150676 2.22831 224 89 240
0.520405 -0.150811 2.23031 225 89 240
0.525124 -0.150947 2.23231 226 89 240
0.52985 -0.151082 2.23431 227 89 240
0.534602 -0.151222 2.23638 227 89 240
0.539363 -0.151363 2.23846 228 89 240
0.544131 -0.151503 2.24054 229 89 240
0.548907 -0.151644 2.24262 230 89 240
0.553691 -0.151784 2.24469 231 89 240
0.558464 -0.151919 2.24669 231 89 240
0.563244 -0.152054 2.24869 232 89 240
0.568032 -0.15219 2.25069 233 89 240
0.572828 -0.152325 2.25269 234 89 240
0.577651 -0.152465 2.25477 235 89 240
0.582482 -0.152606 2.25685 235 89 240
0.58734 -0.152751 2.259 236 89 240
0.592167 -0.152887 2.261 237 89 240
0.597001 -0.153022 2.263 238 89 240
0.601843 -0.153157 2.265 239 89 240
0.606692 -0.153292 2.267 239 89 240
0.61155 -0.153428 2.269 240 89 240
0.616414 -0.153563 2.271 241 89 240
0.621308 -0.153703 2.27308 242 89 240
0.62623 -0.153849 2.27523 243 89 240
0.63114 -0.153989 2.27731 243 89 240
0.636035 -0.154125 2.27931 244 89 240
0.640939 -0.15426 2.28131 245 89 240
0.64585 -0.154395 2.28331 246 89 240
0.650769 -0.15453 2.28531 247 89 240
0.655695 -0.154666 2.28731 247 89 240
0.660651 -0.154806 2.28938 248 89 240
0.665615 -0.154946 2.29146 249 89 240
0.670587 -0.155087 2.29354 250 89 240
0.675567 -0.155227 2.29562 251 89 240
0.680555 -0.155368 2.29769 251 89 240
0.685527 -0.155503 2.29969 252 89 240
0.690485 -0.155633 2.30162 253 89 240
0.695357 -0.155742 2.30323 254 89 240
0.699955 -0.155789 2.30393 255 89 240
-0.503739 -0.108959 1.65807 0 90 240
-0.500813 -0.10901 1.65884 0 90 240
-0.498161 -0.109121 1.66054 1 90 240
-0.495595 -0.109253 1.66254 2 90 240
-0.493044 -0.109389 1.66462 3 90 240
-0.490484 -0.109526 1.66669 3 90 240
-0.487894 -0.109657 1.66869 4 90 240
-0.485296 -0.109788 1.67069 5 90 240
-0.482691 -0.10992 1.67269 6 90 240
-0.480079 -0.110051 1.67469 7 90 240
-0.477458 -0.110183 1.67669 7 90 240
-0.474852 -0.110319 1.67877 8 90 240
-0.472259 -0.110461 1.68092 9 90 240
-0.469637 -0.110597 1.683 10 90 240
-0.466986 -0.110729 1.685 11 90 240
-0.464327 -0.11086 1.687 11 90 240
-0.46166 -0.110991 1.689 12 90 240
-0.458986 -0.111123 1.691 13 90 240
-0.456304 -0.111254 1.693 14 90 240
-0.453614 -0.111386 1.695 15 90 240
-0.450938 -0.111522 1.69708 15 90 240
-0.448273 -0.111664 1.69923 16 90 240
-0.445581 -0.1118 1.70131 17 90 240
-0.44286 -0.111932 1.70331 18 90 240
-0.440132 -0.112063 1.70531 19 90 240
-0.437396 -0.112195 1.70731 19 90 240
-0.434652 -0.112326 1.70931 20 90 240
-0.431901 -0.112457 1.71131 21 90 240
-0.429162 -0.112594 1.71338 22 90 240
-0.426415 -0.11273 1.71546 23 90 240
-0.42366 -0.112867 1.71754 23 90 240
-0.420897 -0.113003 1.71962 24 90 240
-0.418125 -0.11314 1.72169 25 90 240
-0.415328 -0.113271 1.72369 26 90 240
-0.412523 -0.113403 1.72569 27 90 240
-0.40971 -0.113534 1.72769 27 90 240
-0.40689 -0.113666 1.72969 28 90 240
-0.40408 -0.113802 1.73177 29 90 240
-0.401262 -0.113939 1.73385 30 90 240
-0.398453 -0.11408 1.736 31 90 240
-0.395602 -0.114211 1.738 31 90 240
-0.392743 -0.114343 1.74 32 90 240
-0.389876 -0.114474 1.742 33 90 240
-0.387002 -0.114606 1.744 34 90 240
-0.38412 -0.114737 1.746 35 90 240
-0.38123 -0.114869 1.748 35 90 240
-0.37835 -0.115005 1.75008 36 90 240
-0.375478 -0.115147 1.75223 37 90 240
-0.372582 -0.115283 1.75431 38 90 240
-0.369661 -0.115415 1.75631 39 90 240
-0.366733 -0.115546 1.75831 39 90 240
-0.363797 -0.115677 1.76031 40 90 240
-0.360853 -0.115809 1.76231 41 90 240
-0.357902 -0.11594 1.76431 42 90 240
-0.354959 -0.116077 1.76638 43 90 240
-0.352008 -0.116213 1.76846 43 90 240
-0.349049 -0.11635 1.77054 44 90 240
-0.346082 -0.116486 1.77262 45 90 240
-0.343107 -0.116623 1.77469 46 90 240
-0.34011 -0.116754 1.77669 47 90 240
-0.337105 -0.116885 1.77869 47 90 240
-0.334092 -0.117017 1.78069 48 90 240
-0.331072 -0.117148 1.78269 49 90 240
-0.328043 -0.11728 1.78469 50 90 240
-0.325022 -0.117416 1.78677 51 90 240
-0.322006 -0.117558 1.78892 51 90 240
-0.318969 -0.117694 1.791 52 90 240
-0.31591 -0.117826 1.793 53 90 240
-0.312843 -0.117957 1.795 54 90 240
-0.309769 -0.118089 1.797 55 90 240
-0.306687 -0.11822 1.799 55 90 240
-0.303597 -0.118351 1.801 56 90 240
-0.3005 -0.118483 1.803 57 90 240
-0.297408 -0.118619 1.80508 58 90 240
-0.29432 -0.118761 1.80723 59 90 240
-0.291212 -0.118897 1.80931 59 90 240
-0.288084 -0.119029 1.81131 60 90 240
-0.284948 -0.11916 1.81331 61 90 240
-0.281805 -0.119292 1.81531 62 90 240
-0.278654 -0.119423 1.81731 63 90 240
-0.275495 -0.119555 1.81931 63 90 240
-0.27234 -0.119691 1.82138 64 90 240
-0.269178 -0.119827 1.82346 65 90 240
-0.266007 -0.119964 1.82554 66 90 240
-0.262829 -0.120101 1.82762 67 90 240
-0.259642 -0.120237 1.82969 67 90 240
-0.256437 -0.120368 1.83169 68 90 240
-0.253224 -0.1205 1.83369 69 90 240
-0.250004 -0.120631 1.83569 70 90 240
-0.246776 -0.120763 1.83769 71 90 240
-0.24354 -0.120894 1.83969 71 90 240
-0.240307 -0.121031 1.84177 72 90 240
-0.237076 -0.121172 1.84392 73 90 240
-0.233827 -0.121309 1.846 74 90 240
-0.23056 -0.12144 1.848 75 90 240
-0.227286 -0.121571 1.85 75 90 240
-0.224004 -0.121703 1.852 76 90 240
-0.220714 -0.121834 1.854 77 90 240
-0.217417 -0.121966 1.856 78 90 240
-0.214112 -0.122097 1.858 79 90 240
-0.210817 -0.122239 1.86015 79 90 240
-0.207506 -0.122375 1.86223 80 90 240
-0.204186 -0.122512 1.86431 81 90 240
-0.20085 -0.122643 1.86631 82 90 240
-0.197507 -0.122775 1.86831 83 90 240
-0.194156 -0.122906 1.87031 83 90 240
-0.190797 -0.123037 1.87231 84 90 240
-0.187438 -0.123174 1.87438 85 90 240
-0.184072 -0.12331 1.87646 86 90 240
-0.180698 -0.123447 1.87854 87 90 240
-0.177315 -0.123583 1.88062 87 90 240
-0.173925 -0.12372 1.88269 88 90 240
-0.17052 -0.123851 1.88469 89 90 240
-0.167107 -0.123983 1.88669 90 90 240
-0.163687 -0.124114 1.88869 91 90 240
-0.160259 -0.124246 1.89069 91 90 240
-0.156823 -0.124377 1.89269 92 90 240
-0.153386 -0.124513 1.89477 93 90 240
-0.149947 -0.124655 1.89692 94 90 240
-0.146494 -0.124791 1.899 95 90 240
-0.143028 -0.124923 1.901 95 90 240
-0.139553 -0.125054 1.903 96 90 240
-0.136071 -0.125186 1.905 97 90 240
-0.132582 -0.125317 1.907 98 90 240
-0.129085 -0.125449 1.909 99 90 240
-0.12558 -0.12558 1.911 99 90 240
-0.122073 -0.125717 1.91308 100 90 240
-0.118562 -0.125858 1.91523 101 90 240
-0.115038 -0.125994 1.91731 102 90 240
-0.111503 -0.126126 1.91931 103 90 240
-0.107959 -0.126257 1.92131 103 90 240
-0.104408 -0.126389 1.92331 104 90 240
-0.100849 -0.12652 1.92531 105 90 240
-0.0972831 -0.126652 1.92731 106 90 240
-0.0937129 -0.126788 1.92938 107 90 240
-0.0901349 -0.126925 1.93146 107 90 240
-0.0865489 -0.127061 1.93354 108 90 240
-0.082955 -0.127198 1.93562 109 90 240
-0.0793531 -0.127334 1.93769 110 90 240
-0.0757404 -0.127466 1.93969 111 90 240
-0.07212 -0.127597 1.94169 111 90 240
-0.068492 -0.127728 1.94369 112 90 240
-0.0648564 -0.12786 1.94569 113 90 240
-0.0612132 -0.127991 1.94769 114 90 240
-0.0575646 -0.128128 1.94977 115 90 240
-0.0539103 -0.128269 1.95192 115 90 240
-0.0502457 -0.128406 1.954 116 90 240
-0.0465714 -0.128537 1.956 117 90 240
-0.0428895 -0.128669 1.958 118 90 240
-0.0392 -0.1288 1.96 119 90 240
-0.0355029 -0.128931 1.962 119 90 240
-0.0317981 -0.129063 1.964 120 90 240
-0.0280857 -0.129194 1.966 121 90 240
-0.0243667 -0.129331 1.96808 122 90 240
-0.0206405 -0.129472 1.97023 123 90 240
-0.0169055 -0.129609 1.97231 123 90 240
-0.0131621 -0.12974 1.97431 124 90 240
-0.00941099 -0.129872 1.97631 125 90 240
-0.00565231 -0.130003 1.97831 126 90 240
-0.00188601 -0.130135 1.98031 127 90 240
0.00188791 -0.130266 1.98231 127 90 240
0.00566967 -0.130402 1.98438 128 90 240
0.00945934 -0.130539 1.98646 129 90 240
0.0132569 -0.130675 1.98854 130 90 240
0.0170624 -0.130812 1.99062 131 90 240
0.0208758 -0.130948 1.99269 131 90 240
0.0246962 -0.13108 1.99469 132 90 240
0.0285242 -0.131211 1.99669 133 90 240
0.0323598 -0.131343 1.99869 134 90 240
0.036203 -0.131474 2.00069 135 90 240
0.0400554 -0.131611 2.00277 135 90 240
0.0439157 -0.131747 2.00485 136 90 240
0.0477857 -0.131889 2.007 137 90 240
0.05166 -0.13202 2.009 138 90 240
0.0555419 -0.132151 2.011 139 90 240
0.0594314 -0.132283 2.013 139 90 240
0.0633286 -0.132414 2.015 140 90 240
0.0672333 -0.132546 2.017 141 90 240
0.0711457 -0.132677 2.019 142 90 240
0.0750686 -0.132814 2.02108 143 90 240
0.0790023 -0.132955 2.02323 143 90 240
0.0829412 -0.133092 2.02531 144 90 240
0.0868846 -0.133223 2.02731 145 90 240
0.0908357 -0.133355 2.02931 146 90 240
0.0947944 -0.133486 2.03131 147 90 240
0.0987607 -0.133617 2.03331 147 90 240
0.102735 -0.133749 2.03531 148 90 240
0.10672 -0.133885 2.03738 149 90 240
0.110714 -0.134022 2.03946 150 90 240
0.114715 -0.134158 2.04154 151 90 240
0.118724 -0.134295 2.04362 151 90 240
0.122742 -0.134431 2.04569 152 90 240
0.126762 -0.134563 2.04769 153 90 240
0.13079 -0.134694 2.04969 154 90 240
0.134826 -0.134826 2.05169 155 90 240
0.138869 -0.134957 2.05369 155 90 240
0.14292 -0.135088 2.05569 156 90 240
0.146984 -0.135225 2.05777 157 90 240
0.151061 -0.135366 2.05992 158 90 240
0.155141 -0.135503 2.062 159 90 240
0.159223 -0.135634 2.064 159 90 240
0.163312 -0.135766 2.066 160 90 240
0.16741 -0.135897 2.068 161 90 240
0.171514 -0.136029 2.07 162 90 240
0.175627 -0.13616 2.072 163 90 240
0.179747 -0.136291 2.074 163 90 240
0.183881 -0.136428 2.07608 164 90 240
0.18803 -0.136569 2.07823 165 90 240
0.192181 -0.136706 2.08031 166 90 240
0.196332 -0.136837 2.08231 167 90 240
0.200491 -0.136969 2.08431 167 90 240
0.204657 -0.1371 2.08631 168 90 240
0.208831 -0.137232 2.08831 169 90 240
0.213012 -0.137363 2.09031 170 90 240
0.217209 -0.1375 2.09238 171 90 240
0.221414 -0.137636 2.09446 171 90 240
0.225628 -0.137773 2.09654 172 90 240
0.229848 -0.137909 2.09862 173 90 240
0.234077 -0.138046 2.10069 174 90 240
0.238305 -0.138177 2.10269 175 90 240
0.242541 -0.138308 2.10469 175 90 240
0.246784 -0.13844 2.10669 176 90 240
0.251035 -0.138571 2.10869 177 90 240
0.255293 -0.138703 2.11069 178 90 240
0.259569 -0.138839 2.11277 179 90 240
0.263862 -0.138981 2.11492 179 90 240
0.268153 -0.139117 2.117 180 90 240
0.272443 -0.139249 2.119 181 90 240
0.27674 -0.13938 2.121 182 90 240
0.281045 -0.139511 2.123 183 90 240
0.285357 -0.139643 2.125 183 90 240
0.289677 -0.139774 2.127 184 90 240
0.294005 -0.139906 2.129 185 90 240
0.298361 -0.140047 2.13115 186 90 240
0.302716 -0.140184 2.13323 187 90 240
0.307078 -0.14032 2.13531 187 90 240
0.311436 -0.140452 2.13731 188 90 240
0.315803 -0.140583 2.13931 189 90 240
0.320177 -0.140715 2.14131 190 90 240
0.324558 -0.140846 2.14331 191 90 240
0.328959 -0.140982 2.14538 191 90 240
0.333368 -0.141119 2.14746 192 90 240
0.337785 -0.141255 2.14954 193 90 240
0.342209 -0.141392 2.15162 194 90 240
0.346642 -0.141528 2.15369 195 90 240
0.35107 -0.14166 2.15569 195 90 240
0.355506 -0.141791 2.15769 196 90 240
0.359949 -0.141923 2.15969 197 90 240
0.3644 -0.142054 2.16169 198 90 240
0.368858 -0.142186 2.16369 199 90 240
0.373337 -0.142322 2.16577 199 90 240
0.377838 -0.142464 2.16792 200 90 240
0.382333 -0.1426 2.17 201 90 240
0.386823 -0.142731 2.172 202 90 240
0.39132 -0.142863 2.174 203 90 240
0.395825 -0.142994 2.176 203 90 240
0.400337 -0.143126 2.178 204 90 240
0.404857 -0.143257 2.18 205 90 240
0.409385 -0.143389 2.182 206 90 240
0.413935 -0.143525 2.18408 207 90 240
0.418507 -0.143667 2.18623 207 90 240
0.423073 -0.143803 2.18831 208 90 240
0.427632 -0.143935 2.19031 209 90 240
0.432198 -0.144066 2.19231 210 90 240
0.436772 -0.144197 2.19431 211 90 240
0.441353 -0.144329 2.19631 211 90 240
0.445942 -0.14446 2.19831 212 90 240
0.450555 -0.144597 2.20038 213 90 240
0.455175 -0.144733 2.20246 214 90 240
0.459804 -0.14487 2.20454 215 90 240
0.46444 -0.145006 2.20662 215 90 240
0.469084 -0.145143 2.20869 216 90 240
0.47372 -0.145274 2.21069 217 90 240
0.478363 -0.145406 2.21269 218 90 240
0.483014 -0.145537 2.21469 219 90 240
0.487672 -0.145668 2.21669 219 90 240
0.492338 -0.1458 2.21869 220 90 240
0.497029 -0.145936 2.22077 221 90 240
0.501746 -0.146078 2.22292 222 90 240
0.506452 -0.146214 2.225 223 90 240
0.51115 -0.146346 2.227 223 90 240
0.515854 -0.146477 2.229 224 90 240
0.520567 -0.146609 2.231 225 90 240
0.525287 -0.14674 2.233 226 90 240
0.530014 -0.146871 2.235 227 90 240
0.53475 -0.147003 2.237 227 90 240
0.539529 -0.147144 2.23915 228 90 240
0.544299 -0.147281 2.24123 229 90 240
0.549076 -0.147417 2.24331 230 90 240
0.553843 -0.147549 2.24531 231 90 240
0.558616 -0.14768 2.24731 231 90 240
0.563398 -0.147812 2.24931 232 90 240
0.568187 -0.147943 2.25131 233 90 240
0.573003 -0.14808 2.25338 234 90 240
0.577828 -0.148216 2.25546 235 90 240
0.58266 -0.148353 2.25754 235 90 240
0.5875 -0.148489 2.25962 236 90 240
0.592348 -0.148626 2.26169 237 90 240
0.597184 -0.148757 2.26369 238 90 240
0.602027 -0.148888 2.26569 239 90 240
0.606878 -0.14902 2.26769 239 90 240
0.611736 -0.149151 2.26969 240 90 240
0.616602 -0.149283 2.27169 241 90 240
0.621497 -0.149419 2.27377 242 90 240
0.626421 -0.149561 2.27592 243 90 240
0.631331 -0.149697 2.278 243 90 240
0.636229 -0.149829 2.28 244 90 240
0.641133 -0.14996 2.282 245 90 240
0.646046 -0.150091 2.284 246 90 240
0.650966 -0.150223 2.286 247 90 240
0.655893 -0.150354 2.288 247 90 240
0.660829 -0.150486 2.29 248 90 240
0.665794 -0.150622 2.29208 249 90 240
0.670789 -0.150764 2.29423 250 90 240
0.675771 -0.1509 2.29631 251 90 240
0.680737 -0.151032 2.29831 251 90 240
0.685711 -0.151163 2.30031 252 90 240
0.690692 -0.151295 2.30231 253 90 240
0.695543 -0.151396 2.30385 254 90 240
0.700119 -0.151436 2.30447 255 90 240
-0.503949 -0.105845 1.65877 0 91 240
-0.500999 -0.105889 1.65946 0 91 240
-0.498346 -0.105997 1.66115 1 91 240
-0.495801 -0.10613 1.66323 2 91 240
-0.493248 -0.106262 1.66531 3 91 240
-0.490665 -0.10639 1.66731 3 91 240
-0.488074 -0.106518 1.66931 4 91 240
-0.485475 -0.106645 1.67131 5 91 240
-0.482869 -0.106773 1.67331 6 91 240
-0.480255 -0.106901 1.67531 7 91 240
-0.477655 -0.107033 1.67738 7 91 240
-0.475048 -0.107166 1.67946 8 91 240
-0.472432 -0.107298 1.68154 9 91 240
-0.469809 -0.107431 1.68362 10 91 240
-0.467178 -0.107563 1.68569 11 91 240
-0.464517 -0.107691 1.68769 11 91 240
-0.461849 -0.107818 1.68969 12 91 240
-0.459174 -0.107946 1.69169 13 91 240
-0.456491 -0.108074 1.69369 14 91 240
-0.4538 -0.108201 1.69569 15 91 240
-0.451122 -0.108334 1.69777 15 91 240
-0.448456 -0.108471 1.69992 16 91 240
-0.445762 -0.108604 1.702 17 91 240
-0.44304 -0.108731 1.704 18 91 240
-0.440311 -0.108859 1.706 19 91 240
-0.437573 -0.108987 1.708 19 91 240
-0.434829 -0.109114 1.71 20 91 240
-0.432076 -0.109242 1.712 21 91 240
-0.429316 -0.10937 1.714 22 91 240
-0.426587 -0.109507 1.71615 23 91 240
-0.42383 -0.109639 1.71823 23 91 240
-0.421066 -0.109772 1.72031 24 91 240
-0.418275 -0.1099 1.72231 25 91 240
-0.415476 -0.110027 1.72431 26 91 240
-0.41267 -0.110155 1.72631 27 91 240
-0.409856 -0.110282 1.72831 27 91 240
-0.407052 -0.110415 1.73038 28 91 240
-0.404241 -0.110548 1.73246 29 91 240
-0.401422 -0.11068 1.73454 30 91 240
-0.398595 -0.110813 1.73662 31 91 240
-0.39576 -0.110945 1.73869 31 91 240
-0.392899 -0.111073 1.74069 32 91 240
-0.390031 -0.1112 1.74269 33 91 240
-0.387156 -0.111328 1.74469 34 91 240
-0.384272 -0.111456 1.74669 35 91 240
-0.381382 -0.111583 1.74869 35 91 240
-0.3785 -0.111716 1.75077 36 91 240
-0.375626 -0.111853 1.75292 37 91 240
-0.372729 -0.111986 1.755 38 91 240
-0.369807 -0.112113 1.757 39 91 240
-0.366877 -0.112241 1.759 39 91 240
-0.36394 -0.112369 1.761 40 91 240
-0.360995 -0.112496 1.763 41 91 240
-0.358043 -0.112624 1.765 42 91 240
-0.355083 -0.112751 1.767 43 91 240
-0.352131 -0.112884 1.76908 43 91 240
-0.349185 -0.113021 1.77123 44 91 240
-0.346217 -0.113154 1.77331 45 91 240
-0.343226 -0.113282 1.77531 46 91 240
-0.340228 -0.113409 1.77731 47 91 240
-0.337221 -0.113537 1.77931 47 91 240
-0.334207 -0.113664 1.78131 48 91 240
-0.331186 -0.113792 1.78331 49 91 240
-0.328171 -0.113924 1.78538 50 91 240
-0.325148 -0.114057 1.78746 51 91 240
-0.322117 -0.11419 1.78954 51 91 240
-0.319078 -0.114322 1.79162 52 91 240
-0.316032 -0.114455 1.79369 53 91 240
-0.312964 -0.114582 1.79569 54 91 240
-0.309888 -0.11471 1.79769 55 91 240
-0.306805 -0.114838 1.79969 55 91 240
-0.303714 -0.114965 1.80169 56 91 240
-0.300615 -0.115093 1.80369 57 91 240
-0.297522 -0.115225 1.80577 58 91 240
-0.294433 -0.115363 1.80792 59 91 240
-0.291324 -0.115495 1.81 59 91 240
-0.288194 -0.115623 1.812 60 91 240
-0.285057 -0.11575 1.814 61 91 240
-0.281912 -0.115878 1.816 62 91 240
-0.27876 -0.116006 1.818 63 91 240
-0.2756 -0.116133 1.82 63 91 240
-0.272432 -0.116261 1.822 64 91 240
-0.269268 -0.116393 1.82408 65 91 240
-0.266108 -0.116531 1.82623 66 91 240
-0.262928 -0.116663 1.82831 67 91 240
-0.259729 -0.116791 1.83031 67 91 240
-0.256523 -0.116919 1.83231 68 91 240
-0.253309 -0.117046 1.83431 69 91 240
-0.250088 -0.117174 1.83631 70 91 240
-0.246858 -0.117302 1.83831 71 91 240
-0.243632 -0.117434 1.84038 71 91 240
-0.240397 -0.117567 1.84246 72 91 240
-0.237155 -0.117699 1.84454 73 91 240
-0.233905 -0.117832 1.84662 74 91 240
-0.230646 -0.117964 1.84869 75 91 240
-0.227371 -0.118092 1.85069 75 91 240
-0.224088 -0.118219 1.85269 76 91 240
-0.220797 -0.118347 1.85469 77 91 240
-0.217498 -0.118475 1.85669 78 91 240
-0.214201 -0.118607 1.85877 79 91 240
-0.210896 -0.11874 1.86085 79 91 240
-0.207591 -0.118877 1.863 80 91 240
-0.204262 -0.119005 1.865 81 91 240
-0.200925 -0.119132 1.867 82 91 240
-0.19758 -0.11926 1.869 83 91 240
-0.194228 -0.119388 1.871 83 91 240
-0.190868 -0.119515 1.873 84 91 240
-0.1875 -0.119643 1.875 85 91 240
-0.184132 -0.119775 1.87708 86 91 240
-0.180764 -0.119913 1.87923 87 91 240
-0.17738 -0.120045 1.88131 87 91 240
-0.173982 -0.120173 1.88331 88 91 240
-0.170575 -0.120301 1.88531 89 91 240
-0.167162 -0.120428 1.88731 90 91 240
-0.16374 -0.120556 1.88931 91 91 240
-0.160311 -0.120683 1.89131 91 91 240
-0.15688 -0.120816 1.89338 92 91 240
-0.153442 -0.120948 1.89546 93 91 240
-0.149996 -0.121081 1.89754 94 91 240
-0.146542 -0.121214 1.89962 95 91 240
-0.14308 -0.121346 1.90169 95 91 240
-0.139604 -0.121474 1.90369 96 91 240
-0.136121 -0.121601 1.90569 97 91 240
-0.13263 -0.121729 1.90769 98 91 240
-0.129132 -0.121857 1.90969 99 91 240
-0.125626 -0.121984 1.91169 99 91 240
-0.122117 -0.122117 1.91377 100 91 240
-0.118605 -0.122254 1.91592 101 91 240
-0.11508 -0.122387 1.918 102 91 240
-0.111543 -0.122514 1.92 103 91 240
-0.107998 -0.122642 1.922 103 91 240
-0.104446 -0.12277 1.924 104 91 240
-0.100886 -0.122897 1.926 105 91 240
-0.0973181 -0.123025 1.928 106 91 240
-0.0937429 -0.123152 1.93 107 91 240
-0.0901636 -0.123285 1.93208 107 91 240
-0.0865799 -0.123422 1.93423 108 91 240
-0.0829846 -0.123555 1.93631 109 91 240
-0.0793783 -0.123682 1.93831 110 91 240
-0.0757644 -0.12381 1.94031 111 91 240
-0.0721429 -0.123938 1.94231 111 91 240
-0.0685137 -0.124065 1.94431 112 91 240
-0.0648769 -0.124193 1.94631 113 91 240
-0.0612349 -0.124325 1.94838 114 91 240
-0.057585 -0.124458 1.95046 115 91 240
-0.0539273 -0.124591 1.95254 115 91 240
-0.0502616 -0.124723 1.95462 116 91 240
-0.0465879 -0.124856 1.95669 117 91 240
-0.0429047 -0.124983 1.95869 118 91 240
-0.0392139 -0.125111 1.96069 119 91 240
-0.0355154 -0.125238 1.96269 119 91 240
-0.0318093 -0.125366 1.96469 120 91 240
-0.0280956 -0.125494 1.96669 121 91 240
-0.0243752 -0.125626 1.96877 122 91 240
-0.0206478 -0.125764 1.97092 123 91 240
-0.0169114 -0.125896 1.973 123 91 240
-0.0131667 -0.126024 1.975 124 91 240
-0.00941429 -0.126151 1.977 125 91 240
-0.00565429 -0.126279 1.979 126 91 240
-0.00188667 -0.126407 1.981 127 91 240
0.00188857 -0.126534 1.983 127 91 240
0.00567143 -0.126662 1.985 128 91 240
0.00946264 -0.126799 1.98715 129 91 240
0.0132615 -0.126932 1.98923 130 91 240
0.0170684 -0.127064 1.99131 131 91 240
0.0208823 -0.127192 1.99331 131 91 240
0.0247038 -0.12732 1.99531 132 91 240
0.028533 -0.127447 1.99731 133 91 240
0.0323697 -0.127575 1.99931 134 91 240
0.0362155 -0.127707 2.00138 135 91 240
0.0400692 -0.12784 2.00346 135 91 240
0.0439309 -0.127972 2.00554 136 91 240
0.0478004 -0.128105 2.00762 137 91 240
0.0516778 -0.128238 2.00969 138 91 240
0.055561 -0.128365 2.01169 139 91 240
0.0594519 -0.128493 2.01369 139 91 240
0.0633503 -0.12862 2.01569 140 91 240
0.0672564 -0.128748 2.01769 141 91 240
0.0711701 -0.128876 2.01969 142 91 240
0.0750943 -0.129008 2.02177 143 91 240
0.0790294 -0.129146 2.02392 143 91 240
0.0829695 -0.129278 2.026 144 91 240
0.0869143 -0.129406 2.028 145 91 240
0.0908667 -0.129533 2.03 146 91 240
0.0948267 -0.129661 2.032 147 91 240
0.0987943 -0.129789 2.034 147 91 240
0.10277 -0.129916 2.036 148 91 240
0.106752 -0.130044 2.038 149 91 240
0.110747 -0.130176 2.04008 150 91 240
0.114754 -0.130314 2.04223 151 91 240
0.118765 -0.130446 2.04431 151 91 240
0.122778 -0.130574 2.04631 152 91 240
0.1268 -0.130702 2.04831 153 91 240
0.130829 -0.130829 2.05031 154 91 240
0.134866 -0.130957 2.05231 155 91 240
0.13891 -0.131084 2.05431 155 91 240
0.142968 -0.131217 2.05638 156 91 240
0.147033 -0.131349 2.05846 157 91 240
0.151106 -0.131482 2.06054 158 91 240
0.155187 -0.131615 2.06262 159 91 240
0.159276 -0.131747 2.06469 159 91 240
0.163367 -0.131875 2.06669 160 91 240
0.167466 -0.132002 2.06869 161 91 240
0.171572 -0.13213 2.07069 162 91 240
0.175685 -0.132258 2.07269 163 91 240
0.179807 -0.132385 2.07469 163 91 240
0.183942 -0.132518 2.07677 164 91 240
0.188093 -0.132655 2.07892 165 91 240
0.192245 -0.132788 2.081 166 91 240
0.196397 -0.132915 2.083 167 91 240
0.200557 -0.133043 2.085 167 91 240
0.204725 -0.13317 2.087 168 91 240
0.2089 -0.133298 2.089 169 91 240
0.213083 -0.133426 2.091 170 91 240
0.217273 -0.133553 2.093 171 91 240
0.221488 -0.133691 2.09515 171 91 240
0.225702 -0.133823 2.09723 172 91 240
0.229924 -0.133956 2.09931 173 91 240
0.234146 -0.134083 2.10131 174 91 240
0.238375 -0.134211 2.10331 175 91 240
0.242612 -0.134339 2.10531 175 91 240
0.246856 -0.134466 2.10731 176 91 240
0.251108 -0.134594 2.10931 177 91 240
0.255377 -0.134726 2.11138 178 91 240
0.259654 -0.134859 2.11346 179 91 240
0.263939 -0.134992 2.11554 179 91 240
0.268231 -0.135124 2.11762 180 91 240
0.272532 -0.135257 2.11969 181 91 240
0.27683 -0.135384 2.12169 182 91 240
0.281136 -0.135512 2.12369 183 91 240
0.28545 -0.135639 2.12569 183 91 240
0.289771 -0.135767 2.12769 184 91 240
0.294111 -0.1359 2.12977 185 91 240
0.298459 -0.136032 2.13185 186 91 240
0.302825 -0.13617 2.134 187 91 240
0.307177 -0.136297 2.136 187 91 240
0.311537 -0.136425 2.138 188 91 240
0.315905 -0.136552 2.14 189 91 240
0.32028 -0.13668 2.142 190 91 240
0.324663 -0.136808 2.144 191 91 240
0.329053 -0.136935 2.146 191 91 240
0.333463 -0.137068 2.14808 192 91 240
0.337893 -0.137205 2.15023 193 91 240
0.342319 -0.137338 2.15231 194 91 240
0.346741 -0.137465 2.15431 195 91 240
0.35117 -0.137593 2.15631 195 91 240
0.355607 -0.137721 2.15831 196 91 240
0.360051 -0.137848 2.16031 197 91 240
0.364503 -0.137976 2.16231 198 91 240
0.368976 -0.138108 2.16438 199 91 240
0.373457 -0.138241 2.16646 199 91 240
0.377945 -0.138373 2.16854 200 91 240
0.382442 -0.138506 2.17062 201 91 240
0.386946 -0.138638 2.17269 202 91 240
0.391445 -0.138766 2.17469 203 91 240
0.395951 -0.138894 2.17669 203 91 240
0.400464 -0.139021 2.17869 204 91 240
0.404986 -0.139149 2.18069 205 91 240
0.409515 -0.139277 2.18269 206 91 240
0.414066 -0.139409 2.18477 207 91 240
0.41864 -0.139547 2.18692 207 91 240
0.423207 -0.139679 2.189 208 91 240
0.427767 -0.139807 2.191 209 91 240
0.432334 -0.139934 2.193 210 91 240
0.43691 -0.140062 2.195 211 91 240
0.441492 -0.14019 2.197 211 91 240
0.446083 -0.140317 2.199 212 91 240
0.450681 -0.140445 2.201 213 91 240
0.455303 -0.140577 2.20308 214 91 240
