ply
format ascii 1.0
element vertex 1220
property float x
property float y
property float z
property uchar red
property uchar green
property uchar blue
end_header
-0.324071 -0.0469502 1.20238 14 105 160
-0.322337 -0.0470313 1.20446 15 105 160
-0.320595 -0.0471125 1.20654 15 105 160
-0.318845 -0.0471936 1.20862 16 105 160
-0.317086 -0.0472747 1.21069 17 105 160
-0.3153 -0.0473528 1.21269 18 105 160
-0.313506 -0.0474309 1.21469 19 105 160
-0.311705 -0.0475089 1.21669 19 105 160
-0.309896 -0.047587 1.21869 20 105 160
-0.30808 -0.0476651 1.22069 21 105 160
-0.306275 -0.0477462 1.22277 22 105 160
-0.304481 -0.0478303 1.22492 23 105 160
-0.30266 -0.0479114 1.227 23 105 160
-0.300812 -0.0479895 1.229 24 105 160
-0.298957 -0.0480676 1.231 25 105 160
-0.297094 -0.0481457 1.233 26 105 160
-0.295224 -0.0482238 1.235 27 105 160
-0.293346 -0.0483019 1.237 27 105 160
-0.29146 -0.04838 1.239 28 105 160
-0.289602 -0.0484641 1.24115 29 105 160
-0.287719 -0.0485452 1.24323 30 105 160
-0.285828 -0.0486263 1.24531 31 105 160
-0.283911 -0.0487044 1.24731 31 105 160
-0.281987 -0.0487825 1.24931 32 105 160
-0.280055 -0.0488606 1.25131 33 105 160
-0.278115 -0.0489387 1.25331 34 105 160
-0.276184 -0.0490198 1.25538 35 105 160
-0.274246 -0.0491009 1.25746 35 105 160
-0.2723 -0.049182 1.25954 36 105 160
-0.270346 -0.0492631 1.26162 37 105 160
-0.268384 -0.0493442 1.26369 38 105 160
-0.266398 -0.0494223 1.26569 39 105 160
-0.264404 -0.0495004 1.26769 39 105 160
-0.262403 -0.0495785 1.26969 40 105 160
-0.260394 -0.0496566 1.27169 41 105 160
-0.258378 -0.0497347 1.27369 42 105 160
-0.256369 -0.0498158 1.27577 43 105 160
-0.254368 -0.0498999 1.27792 43 105 160
-0.252343 -0.049981 1.28 44 105 160
-0.250295 -0.0500591 1.282 45 105 160
-0.24824 -0.0501372 1.284 46 105 160
-0.246177 -0.0502152 1.286 47 105 160
-0.244107 -0.0502933 1.288 47 105 160
-0.242029 -0.0503714 1.29 48 105 160
-0.239943 -0.0504495 1.292 49 105 160
-0.237864 -0.0505306 1.29408 50 105 160
-0.235791 -0.0506147 1.29623 51 105 160
-0.233695 -0.0506958 1.29831 51 105 160
-0.231579 -0.0507739 1.30031 52 105 160
-0.229454 -0.050852 1.30231 53 105 160
-0.227322 -0.0509301 1.30431 54 105 160
-0.225183 -0.0510082 1.30631 55 105 160
-0.223035 -0.0510863 1.30831 55 105 160
-0.220893 -0.0511674 1.31038 56 105 160
-0.218744 -0.0512485 1.31246 57 105 160
-0.216586 -0.0513296 1.31454 58 105 160
-0.21442 -0.0514107 1.31662 59 105 160
-0.212247 -0.0514918 1.31869 59 105 160
-0.210053 -0.0515699 1.32069 60 105 160
-0.207852 -0.051648 1.32269 61 105 160
-0.205643 -0.0517261 1.32469 62 105 160
-0.203426 -0.0518042 1.32669 63 105 160
-0.201202 -0.0518823 1.32869 63 105 160
-0.198982 -0.0519634 1.33077 64 105 160
-0.196765 -0.0520475 1.33292 65 105 160
-0.194529 -0.0521286 1.335 66 105 160
-0.192273 -0.0522067 1.337 67 105 160
-0.19001 -0.0522848 1.339 67 105 160
-0.18774 -0.0523629 1.341 68 105 160
-0.185462 -0.052441 1.343 69 105 160
-0.183176 -0.052519 1.345 70 105 160
-0.180883 -0.0525971 1.347 71 105 160
-0.178602 -0.0526812 1.34915 71 105 160
-0.176303 -0.0527623 1.35123 72 105 160
-0.173997 -0.0528434 1.35331 73 105 160
-0.171672 -0.0529215 1.35531 74 105 160
-0.16934 -0.0529996 1.35731 75 105 160
-0.167001 -0.0530777 1.35931 75 105 160
-0.164653 -0.0531558 1.36131 76 105 160
-0.16228 -0.053228 1.36316 77 105 160
-0.147764 -0.0492546 1.2614 78 105 160
-0.109244 -0.0370166 0.947987 79 105 160
-0.0472789 -0.0162894 0.417167 79 105 160
-0.0114929 -0.00402741 0.103141 80 105 160
0.00407264 -0.00451293 0.115575 142 105 160
0.017372 -0.0182629 0.467708 143 105 160
0.041621 -0.041621 1.0659 143 105 160
0.0581227 -0.0554193 1.41928 144 105 160
0.0658583 -0.0600042 1.53669 145 105 160
0.0688748 -0.0600823 1.53869 146 105 160
0.071899 -0.0601604 1.54069 147 105 160
0.0749308 -0.0602385 1.54269 147 105 160
0.0779702 -0.0603166 1.54469 148 105 160
0.0810213 -0.0603977 1.54677 149 105 160
0.0840844 -0.0604818 1.54892 150 105 160
0.0871514 -0.0605629 1.551 151 105 160
0.0902219 -0.060641 1.553 151 105 160
0.0933 -0.0607191 1.555 152 105 160
0.0963857 -0.0607971 1.557 153 105 160
0.0994791 -0.0608752 1.559 154 105 160
0.10258 -0.0609533 1.561 155 105 160
0.105689 -0.0610314 1.563 155 105 160
0.10881 -0.0611125 1.56508 156 105 160
0.111945 -0.0611966 1.56723 157 105 160
0.115083 -0.0612777 1.56931 158 105 160
0.118222 -0.0613558 1.57131 159 105 160
0.121369 -0.0614339 1.57331 159 105 160
0.124524 -0.061512 1.57531 160 105 160
0.127687 -0.0615901 1.57731 161 105 160
0.130857 -0.0616682 1.57931 162 105 160
0.134041 -0.0617493 1.58138 163 105 160
0.137233 -0.0618304 1.58346 163 105 160
0.140433 -0.0619115 1.58554 164 105 160
0.143641 -0.0619926 1.58762 165 105 160
0.146857 -0.0620737 1.58969 166 105 160
0.150074 -0.0621518 1.59169 167 105 160
0.153298 -0.0622299 1.59369 167 105 160
0.15653 -0.062308 1.59569 168 105 160
0.159769 -0.0623861 1.59769 169 105 160
0.163016 -0.0624642 1.59969 170 105 160
0.166279 -0.0625453 1.60177 171 105 160
0.169558 -0.0626294 1.60392 171 105 160
0.172836 -0.0627105 1.606 172 105 160
0.176114 -0.0627886 1.608 173 105 160
0.1794 -0.0628667 1.61 174 105 160
0.182693 -0.0629448 1.612 175 105 160
0.185994 -0.0630229 1.614 175 105 160
0.189303 -0.063101 1.616 176 105 160
0.192619 -0.0631791 1.618 177 105 160
0.195961 -0.0632631 1.62015 178 105 160
0.199303 -0.0633442 1.62223 179 105 160
0.202652 -0.0634254 1.62431 179 105 160
0.205999 -0.0635034 1.62631 180 105 160
0.209354 -0.0635815 1.62831 181 105 160
0.212716 -0.0636596 1.63031 182 105 160
0.216086 -0.0637377 1.63231 183 105 160
0.219474 -0.0638188 1.63438 183 105 160
0.22287 -0.0638999 1.63646 184 105 160
0.226274 -0.063981 1.63854 185 105 160
0.229686 -0.0640622 1.64062 186 105 160
0.233106 -0.0641432 1.64269 187 105 160
0.236522 -0.0642213 1.64469 187 105 160
0.239947 -0.0642994 1.64669 188 105 160
0.243378 -0.0643775 1.64869 189 105 160
0.246818 -0.0644556 1.65069 190 105 160
0.250265 -0.0645337 1.65269 191 105 160
0.253731 -0.0646148 1.65477 191 105 160
0.257218 -0.0646989 1.65692 192 105 160
0.2607 -0.06478 1.659 193 105 160
0.264178 -0.0648581 1.661 194 105 160
0.267664 -0.0649362 1.663 195 105 160
0.271157 -0.0650143 1.665 195 105 160
0.274658 -0.0650924 1.667 196 105 160
0.278167 -0.0651705 1.669 197 105 160
0.281683 -0.0652486 1.671 198 105 160
0.28522 -0.0653297 1.67308 199 105 160
0.288778 -0.0654138 1.67523 199 105 160
0.292331 -0.0654949 1.67731 200 105 160
0.295878 -0.065573 1.67931 201 105 160
0.299433 -0.0656511 1.68131 202 105 160
0.302995 -0.0657291 1.68331 203 105 160
0.306565 -0.0658072 1.68531 203 105 160
0.310143 -0.0658854 1.68731 204 105 160
0.313743 -0.0659664 1.68938 205 105 160
0.31735 -0.0660475 1.69146 206 105 160
0.320966 -0.0661287 1.69354 207 105 160
0.324589 -0.0662098 1.69562 207 105 160
0.328221 -0.0662908 1.69769 208 105 160
0.331845 -0.066369 1.69969 209 105 160
0.335477 -0.066447 1.70169 210 105 160
0.339116 -0.0665251 1.70369 211 105 160
0.342763 -0.0666032 1.70569 211 105 160
0.346418 -0.0666813 1.70769 212 105 160
0.350096 -0.0667624 1.70977 213 105 160
0.353797 -0.0668465 1.71192 214 105 160
0.357491 -0.0669276 1.714 215 105 160
0.361177 -0.0670057 1.716 215 105 160
0.364871 -0.0670838 1.718 216 105 160
0.368571 -0.0671619 1.72 217 105 160
0.37228 -0.06724 1.722 218 105 160
0.375996 -0.0673181 1.724 219 105 160
0.37972 -0.0673962 1.726 219 105 160
0.383469 -0.0674773 1.72808 220 105 160
0.387242 -0.0675614 1.73023 221 105 160
0.391007 -0.0676425 1.73231 222 105 160
0.394762 -0.0677206 1.73431 223 105 160
0.398524 -0.0677987 1.73631 223 105 160
0.402294 -0.0678768 1.73831 224 105 160
0.406072 -0.0679549 1.74031 225 105 160
0.409857 -0.068033 1.74231 226 105 160
0.413668 -0.068114 1.74438 227 105 160
0.417487 -0.0681952 1.74646 227 105 160
0.421315 -0.0682763 1.74854 228 105 160
0.42515 -0.0683574 1.75062 229 105 160
0.428992 -0.0684385 1.75269 230 105 160
0.432824 -0.0685166 1.75469 231 105 160
0.436664 -0.0685947 1.75669 231 105 160
0.440511 -0.0686728 1.75869 232 105 160
0.444365 -0.0687509 1.76069 233 105 160
0.448247 -0.068832 1.76277 234 105 160
0.452137 -0.0689131 1.76485 235 105 160
0.456054 -0.0689972 1.767 235 105 160
0.45994 -0.0690752 1.769 236 105 160
0.463833 -0.0691533 1.771 237 105 160
0.467734 -0.0692314 1.773 238 105 160
0.471643 -0.0693095 1.775 239 105 160
0.475559 -0.0693876 1.777 239 105 160
0.479483 -0.0694657 1.779 240 105 160
0.483435 -0.0695468 1.78108 241 105 160
0.487416 -0.0696309 1.78323 242 105 160
0.491385 -0.069712 1.78531 243 105 160
0.49534 -0.0697901 1.78731 243 105 160
0.499302 -0.0698682 1.78931 244 105 160
0.503272 -0.0699463 1.79131 245 105 160
0.50725 -0.0700244 1.79331 246 105 160
0.511235 -0.0701025 1.79531 247 105 160
0.51525 -0.0701836 1.79738 247 105 160
0.519273 -0.0702647 1.79946 248 105 160
0.523304 -0.0703458 1.80154 249 105 160
0.527343 -0.0704269 1.80362 250 105 160
0.53139 -0.070508 1.80569 251 105 160
0.535421 -0.0705861 1.80769 251 105 160
0.539461 -0.0706642 1.80969 252 105 160
0.543485 -0.0707393 1.81162 253 105 160
0.547424 -0.0708024 1.81323 254 105 160
0.551088 -0.0708295 1.81393 255 105 160
-0.354918 -0.0433913 1.16823 0 106 160
-0.352903 -0.043417 1.16892 0 106 160
-0.351185 -0.04348 1.17062 1 106 160
-0.349551 -0.0435543 1.17262 2 106 160
-0.347933 -0.0436314 1.17469 3 106 160
-0.346284 -0.0437057 1.17669 3 106 160
-0.344627 -0.04378 1.17869 4 106 160
-0.342963 -0.0438543 1.18069 5 106 160
-0.341291 -0.0439286 1.18269 6 106 160
-0.339612 -0.0440029 1.18469 7 106 160
-0.337947 -0.04408 1.18677 7 106 160
-0.336295 -0.04416 1.18892 8 106 160
-0.334614 -0.0442371 1.191 9 106 160
-0.332904 -0.0443114 1.193 10 106 160
-0.331186 -0.0443857 1.195 11 106 160
-0.32946 -0.04446 1.197 11 106 160
-0.327727 -0.0445343 1.199 12 106 160
-0.325986 -0.0446086 1.201 13 106 160
-0.324237 -0.0446829 1.203 14 106 160
-0.322502 -0.04476 1.20508 15 106 160
-0.320778 -0.04484 1.20723 15 106 160
-0.319027 -0.0449171 1.20931 16 106 160
-0.317247 -0.0449914 1.21131 17 106 160
-0.31546 -0.0450657 1.21331 18 106 160
-0.313665 -0.04514 1.21531 19 106 160
-0.311863 -0.0452143 1.21731 19 106 160
-0.310053 -0.0452886 1.21931 20 106 160
-0.308254 -0.0453657 1.22138 21 106 160
-0.306448 -0.0454428 1.22346 22 106 160
-0.304634 -0.04552 1.22554 23 106 160
-0.302812 -0.0455972 1.22762 23 106 160
-0.300982 -0.0456743 1.22969 24 106 160
-0.299125 -0.0457486 1.23169 25 106 160
-0.297261 -0.0458229 1.23369 26 106 160
-0.295389 -0.0458972 1.23569 27 106 160
-0.29351 -0.0459714 1.23769 27 106 160
-0.291641 -0.0460486 1.23977 28 106 160
-0.289764 -0.0461257 1.24185 29 106 160
-0.287897 -0.0462057 1.244 30 106 160
-0.285987 -0.04628 1.246 31 106 160
-0.284069 -0.0463543 1.248 31 106 160
-0.282143 -0.0464286 1.25 32 106 160
-0.28021 -0.0465029 1.252 33 106 160
-0.278269 -0.0465771 1.254 34 106 160
-0.27632 -0.0466514 1.256 35 106 160
-0.274381 -0.0467286 1.25808 35 106 160
-0.27245 -0.0468086 1.26023 36 106 160
-0.270494 -0.0468857 1.26231 37 106 160
-0.268515 -0.04696 1.26431 38 106 160
-0.266528 -0.0470343 1.26631 39 106 160
-0.264533 -0.0471086 1.26831 39 106 160
-0.26253 -0.0471829 1.27031 40 106 160
-0.26052 -0.0472571 1.27231 41 106 160
-0.258518 -0.0473343 1.27438 42 106 160
-0.256508 -0.0474114 1.27646 43 106 160
-0.25449 -0.0474886 1.27854 43 106 160
-0.252464 -0.0475657 1.28062 44 106 160
-0.25043 -0.0476429 1.28269 45 106 160
-0.248374 -0.0477172 1.28469 46 106 160
-0.24631 -0.0477914 1.28669 47 106 160
-0.244238 -0.0478657 1.28869 47 106 160
-0.242159 -0.04794 1.29069 48 106 160
-0.240072 -0.0480143 1.29269 49 106 160
-0.237991 -0.0480914 1.29477 50 106 160
-0.235916 -0.0481714 1.29692 51 106 160
-0.23382 -0.0482486 1.299 51 106 160
-0.231702 -0.0483229 1.301 52 106 160
-0.229576 -0.0483971 1.303 53 106 160
-0.227443 -0.0484714 1.305 54 106 160
-0.225302 -0.0485457 1.307 55 106 160
-0.223153 -0.04862 1.309 55 106 160
-0.220997 -0.0486943 1.311 56 106 160
-0.218846 -0.0487714 1.31308 57 106 160
-0.2167 -0.0488514 1.31523 58 106 160
-0.214533 -0.0489286 1.31731 59 106 160
-0.212346 -0.0490029 1.31931 59 106 160
-0.210151 -0.0490771 1.32131 60 106 160
-0.207948 -0.0491514 1.32331 61 106 160
-0.205738 -0.0492257 1.32531 62 106 160
-0.20352 -0.0493 1.32731 63 106 160
-0.201307 -0.0493771 1.32938 63 106 160
-0.199085 -0.0494543 1.33146 64 106 160
-0.196856 -0.0495315 1.33354 65 106 160
-0.194618 -0.0496086 1.33562 66 106 160
-0.192373 -0.0496857 1.33769 67 106 160
-0.190109 -0.04976 1.33969 67 106 160
-0.187837 -0.0498343 1.34169 68 106 160
-0.185558 -0.0499086 1.34369 69 106 160
-0.183271 -0.0499829 1.34569 70 106 160
-0.180986 -0.05006 1.34777 71 106 160
-0.178694 -0.0501372 1.34985 71 106 160
-0.176404 -0.0502171 1.352 72 106 160
-0.174086 -0.0502914 1.354 73 106 160
-0.17176 -0.0503657 1.356 74 106 160
-0.169427 -0.05044 1.358 75 106 160
-0.167086 -0.0505143 1.36 75 106 160
-0.164737 -0.0505886 1.362 76 106 160
-0.162363 -0.0506572 1.36385 77 106 160
-0.147836 -0.0468749 1.26202 78 106 160
-0.109298 -0.0352283 0.948454 79 106 160
-0.0473046 -0.0155032 0.417393 79 106 160
-0.0115011 -0.00383371 0.103215 80 106 160
0.00407264 -0.00429278 0.115575 142 106 160
0.0173776 -0.0173776 0.467858 143 106 160
0.0416391 -0.0396079 1.06637 143 106 160
0.0581479 -0.0527388 1.41989 144 106 160
0.0658846 -0.0571 1.53731 145 106 160
0.0689024 -0.0571743 1.53931 146 106 160
0.0719277 -0.0572486 1.54131 147 106 160
0.0749607 -0.0573229 1.54331 147 106 160
0.0780051 -0.0574 1.54538 148 106 160
0.0810575 -0.0574771 1.54746 149 106 160
0.0841178 -0.0575543 1.54954 150 106 160
0.0871861 -0.0576315 1.55162 151 106 160
0.0902621 -0.0577086 1.55369 151 106 160
0.0933415 -0.0577829 1.55569 152 106 160
0.0964286 -0.0578572 1.55769 153 106 160
0.0995232 -0.0579314 1.55969 154 106 160
0.102626 -0.0580057 1.56169 155 106 160
0.105735 -0.05808 1.56369 155 106 160
0.108858 -0.0581572 1.56577 156 106 160
0.111995 -0.0582372 1.56792 157 106 160
0.115133 -0.0583143 1.57 158 106 160
0.118274 -0.0583886 1.572 159 106 160
0.121423 -0.0584629 1.574 159 106 160
0.124579 -0.0585371 1.576 160 106 160
0.127743 -0.0586114 1.578 161 106 160
0.130914 -0.0586857 1.58 162 106 160
0.134093 -0.05876 1.582 163 106 160
0.137287 -0.0588372 1.58408 163 106 160
0.140495 -0.0589171 1.58623 164 106 160
0.143704 -0.0589943 1.58831 165 106 160
0.146914 -0.0590686 1.59031 166 106 160
0.150132 -0.0591429 1.59231 167 106 160
0.153357 -0.0592171 1.59431 167 106 160
0.15659 -0.0592914 1.59631 168 106 160
0.159831 -0.0593657 1.59831 169 106 160
0.163087 -0.0594428 1.60038 170 106 160
0.166351 -0.05952 1.60246 171 106 160
0.169623 -0.0595972 1.60454 171 106 160
0.172903 -0.0596743 1.60662 172 106 160
0.17619 -0.0597514 1.60869 173 106 160
0.179477 -0.0598257 1.61069 174 106 160
0.182772 -0.0599 1.61269 175 106 160
0.186074 -0.0599743 1.61469 175 106 160
0.189384 -0.0600486 1.61669 176 106 160
0.192711 -0.0601257 1.61877 177 106 160
0.196045 -0.0602029 1.62085 178 106 160
0.199397 -0.0602829 1.623 179 106 160
0.202738 -0.0603571 1.625 179 106 160
0.206087 -0.0604314 1.627 180 106 160
0.209443 -0.0605057 1.629 181 106 160
0.212807 -0.06058 1.631 182 106 160
0.216178 -0.0606543 1.633 183 106 160
0.219557 -0.0607286 1.635 183 106 160
0.222954 -0.0608057 1.63708 184 106 160
0.22637 -0.0608857 1.63923 185 106 160
0.229783 -0.0609629 1.64131 186 106 160
0.233193 -0.0610371 1.64331 187 106 160
0.236611 -0.0611114 1.64531 187 106 160
0.240036 -0.0611857 1.64731 188 106 160
0.243469 -0.06126 1.64931 189 106 160
0.24691 -0.0613343 1.65131 190 106 160
0.25037 -0.0614114 1.65338 191 106 160
0.253837 -0.0614886 1.65546 191 106 160
0.257313 -0.0615657 1.65754 192 106 160
0.260797 -0.0616429 1.65962 193 106 160
0.264288 -0.06172 1.66169 194 106 160
0.267775 -0.0617943 1.66369 195 106 160
0.27127 -0.0618686 1.66569 195 106 160
0.274772 -0.0619429 1.66769 196 106 160
0.278282 -0.0620172 1.66969 197 106 160
0.2818 -0.0620914 1.67169 198 106 160
0.285338 -0.0621686 1.67377 199 106 160
0.288897 -0.0622486 1.67592 199 106 160
0.292451 -0.0623257 1.678 200 106 160
0.296 -0.0624 1.68 201 106 160
0.299556 -0.0624743 1.682 202 106 160
0.30312 -0.0625486 1.684 203 106 160
0.306691 -0.0626229 1.686 203 106 160
0.31027 -0.0626971 1.688 204 106 160
0.313857 -0.0627714 1.69 205 106 160
0.317466 -0.0628486 1.69208 206 106 160
0.321097 -0.0629286 1.69423 207 106 160
0.324722 -0.0630057 1.69631 207 106 160
0.328339 -0.06308 1.69831 208 106 160
0.331965 -0.0631543 1.70031 209 106 160
0.335598 -0.0632286 1.70231 210 106 160
0.339238 -0.0633029 1.70431 211 106 160
0.342887 -0.0633771 1.70631 211 106 160
0.346558 -0.0634543 1.70838 212 106 160
0.350237 -0.0635314 1.71046 213 106 160
0.353925 -0.0636086 1.71254 214 106 160
0.35762 -0.0636857 1.71462 215 106 160
0.361323 -0.0637629 1.71669 215 106 160
0.365018 -0.0638372 1.71869 216 106 160
0.36872 -0.0639114 1.72069 217 106 160
0.37243 -0.0639857 1.72269 218 106 160
0.376147 -0.06406 1.72469 219 106 160
0.379872 -0.0641343 1.72669 219 106 160
0.383622 -0.0642114 1.72877 220 106 160
0.387397 -0.0642914 1.73092 221 106 160
0.391163 -0.0643686 1.733 222 106 160
0.394919 -0.0644429 1.735 223 106 160
0.398683 -0.0645171 1.737 223 106 160
0.402454 -0.0645914 1.739 224 106 160
0.406233 -0.0646657 1.741 225 106 160
0.41002 -0.06474 1.743 226 106 160
0.413814 -0.0648143 1.745 227 106 160
0.417653 -0.0648943 1.74715 227 106 160
0.421481 -0.0649714 1.74923 228 106 160
0.425318 -0.0650486 1.75131 229 106 160
0.429143 -0.0651229 1.75331 230 106 160
0.432976 -0.0651971 1.75531 231 106 160
0.436816 -0.0652714 1.75731 231 106 160
0.440665 -0.0653457 1.75931 232 106 160
0.44454 -0.0654228 1.76138 233 106 160
0.448423 -0.0655 1.76346 234 106 160
0.452314 -0.0655772 1.76554 235 106 160
0.456213 -0.0656543 1.76762 235 106 160
0.46012 -0.0657314 1.76969 236 106 160
0.464015 -0.0658057 1.77169 237 106 160
0.467917 -0.06588 1.77369 238 106 160
0.471827 -0.0659543 1.77569 239 106 160
0.475744 -0.0660286 1.77769 239 106 160
0.47967 -0.0661029 1.77969 240 106 160
0.483623 -0.06618 1.78177 241 106 160
0.487606 -0.06626 1.78392 242 106 160
0.491575 -0.0663371 1.786 243 106 160
0.495531 -0.0664114 1.788 243 106 160
0.499495 -0.0664857 1.79 244 106 160
0.503467 -0.06656 1.792 245 106 160
0.507446 -0.0666343 1.794 246 106 160
0.511432 -0.0667086 1.796 247 106 160
0.515427 -0.0667829 1.798 247 106 160
0.519451 -0.06686 1.80008 248 106 160
0.523505 -0.06694 1.80223 249 106 160
0.527545 -0.0670172 1.80431 250 106 160
0.53157 -0.0670914 1.80631 251 106 160
0.535604 -0.0671657 1.80831 251 106 160
0.539644 -0.06724 1.81031 252 106 160
0.543692 -0.0673143 1.81231 253 106 160
0.54761 -0.0673715 1.81385 254 106 160
0.551252 -0.0673944 1.81447 255 106 160
-0.355082 -0.0411851 1.16877 0 107 160
-0.353089 -0.0412122 1.16954 0 107 160
-0.351392 -0.0412746 1.17131 1 107 160
-0.349757 -0.0413451 1.17331 2 107 160
-0.348115 -0.0414156 1.17531 3 107 160
-0.346465 -0.0414861 1.17731 3 107 160
-0.344807 -0.0415566 1.17931 4 107 160
-0.343142 -0.041627 1.18131 5 107 160
-0.341469 -0.0416975 1.18331 6 107 160
-0.33981 -0.0417707 1.18538 7 107 160
-0.338144 -0.0418439 1.18746 7 107 160
-0.33647 -0.0419171 1.18954 8 107 160
-0.334787 -0.0419903 1.19162 9 107 160
-0.333097 -0.0420635 1.19369 10 107 160
-0.331378 -0.0421339 1.19569 11 107 160
-0.329651 -0.0422044 1.19769 11 107 160
-0.327916 -0.0422749 1.19969 12 107 160
-0.326174 -0.0423454 1.20169 13 107 160
-0.324424 -0.0424158 1.20369 14 107 160
-0.322687 -0.042489 1.20577 15 107 160
-0.320962 -0.0425649 1.20792 15 107 160
-0.31921 -0.0426381 1.21 16 107 160
-0.317429 -0.0427086 1.212 17 107 160
-0.31564 -0.0427791 1.214 18 107 160
-0.313844 -0.0428495 1.216 19 107 160
-0.31204 -0.04292 1.218 19 107 160
-0.310229 -0.0429905 1.22 20 107 160
-0.30841 -0.043061 1.222 21 107 160
-0.306621 -0.0431368 1.22415 22 107 160
-0.304806 -0.04321 1.22623 23 107 160
-0.302983 -0.0432832 1.22831 23 107 160
-0.301132 -0.0433537 1.23031 24 107 160
-0.299275 -0.0434242 1.23231 25 107 160
-0.297409 -0.0434947 1.23431 26 107 160
-0.295536 -0.0435651 1.23631 27 107 160
-0.293674 -0.0436383 1.23838 27 107 160
-0.291804 -0.0437115 1.24046 28 107 160
-0.289926 -0.0437847 1.24254 29 107 160
-0.28804 -0.0438579 1.24462 30 107 160
-0.286146 -0.0439311 1.24669 31 107 160
-0.284226 -0.0440015 1.24869 31 107 160
-0.282299 -0.044072 1.25069 32 107 160
-0.280365 -0.0441425 1.25269 33 107 160
-0.278422 -0.044213 1.25469 34 107 160
-0.276472 -0.0442835 1.25669 35 107 160
-0.274532 -0.0443566 1.25877 35 107 160
-0.2726 -0.0444325 1.26092 36 107 160
-0.270643 -0.0445057 1.263 37 107 160
-0.268662 -0.0445762 1.265 38 107 160
-0.266673 -0.0446467 1.267 39 107 160
-0.264677 -0.0447171 1.269 39 107 160
-0.262673 -0.0447876 1.271 40 107 160
-0.260662 -0.0448581 1.273 41 107 160
-0.258643 -0.0449286 1.275 42 107 160
-0.256632 -0.0450018 1.27708 43 107 160
-0.254628 -0.0450776 1.27923 43 107 160
-0.252601 -0.0451508 1.28131 44 107 160
-0.250551 -0.0452213 1.28331 45 107 160
-0.248493 -0.0452918 1.28531 46 107 160
-0.246427 -0.0453623 1.28731 47 107 160
-0.244354 -0.0454327 1.28931 47 107 160
-0.242274 -0.0455032 1.29131 48 107 160
-0.2402 -0.0455764 1.29338 49 107 160
-0.238118 -0.0456496 1.29546 50 107 160
-0.236029 -0.0457228 1.29754 51 107 160
-0.233931 -0.045796 1.29962 51 107 160
-0.231825 -0.0458692 1.30169 52 107 160
-0.229698 -0.0459396 1.30369 53 107 160
-0.227564 -0.0460101 1.30569 54 107 160
-0.225421 -0.0460806 1.30769 55 107 160
-0.223271 -0.0461511 1.30969 55 107 160
-0.221114 -0.0462215 1.31169 56 107 160
-0.218962 -0.0462947 1.31377 57 107 160
-0.216814 -0.0463706 1.31592 58 107 160
-0.214646 -0.0464438 1.318 59 107 160
-0.212457 -0.0465143 1.32 59 107 160
-0.210261 -0.0465848 1.322 60 107 160
-0.208057 -0.0466552 1.324 61 107 160
-0.205846 -0.0467257 1.326 62 107 160
-0.203627 -0.0467962 1.328 63 107 160
-0.2014 -0.0468667 1.33 63 107 160
-0.199189 -0.0469425 1.33215 64 107 160
-0.196958 -0.0470157 1.33423 65 107 160
-0.194719 -0.0470889 1.33631 66 107 160
-0.192461 -0.0471594 1.33831 67 107 160
-0.190196 -0.0472299 1.34031 67 107 160
-0.187923 -0.0473004 1.34231 68 107 160
-0.185642 -0.0473708 1.34431 69 107 160
-0.183365 -0.047444 1.34638 70 107 160
-0.181079 -0.0475172 1.34846 71 107 160
-0.178786 -0.0475904 1.35054 71 107 160
-0.176484 -0.0476636 1.35262 72 107 160
-0.174175 -0.0477368 1.35469 73 107 160
-0.171848 -0.0478073 1.35669 74 107 160
-0.169513 -0.0478777 1.35869 75 107 160
-0.167171 -0.0479482 1.36069 75 107 160
-0.164821 -0.0480187 1.36269 76 107 160
-0.162445 -0.0480838 1.36454 77 107 160
-0.147909 -0.0444928 1.26263 78 107 160
-0.109352 -0.0334382 0.948921 79 107 160
-0.0473302 -0.0147161 0.417619 79 107 160
-0.0115094 -0.00363973 0.10329 80 107 160
0.00407524 -0.00407524 0.115649 142 107 160
0.0173859 -0.0164944 0.468083 143 107 160
0.0416574 -0.0375933 1.06684 143 107 160
0.0581732 -0.050056 1.42051 144 107 160
0.0659143 -0.0541962 1.538 145 107 160
0.0689333 -0.0542667 1.54 146 107 160
0.07196 -0.0543372 1.542 147 107 160
0.0749943 -0.0544076 1.544 147 107 160
0.0780362 -0.0544781 1.546 148 107 160
0.0810898 -0.0545513 1.54808 149 107 160
0.0841554 -0.0546272 1.55023 150 107 160
0.0872249 -0.0547004 1.55231 151 107 160
0.0902979 -0.0547708 1.55431 151 107 160
0.0933785 -0.0548413 1.55631 152 107 160
0.0964667 -0.0549118 1.55831 153 107 160
0.0995625 -0.0549823 1.56031 154 107 160
0.102666 -0.0550528 1.56231 155 107 160
0.105782 -0.0551259 1.56438 155 107 160
0.108906 -0.0551991 1.56646 156 107 160
0.112039 -0.0552723 1.56854 157 107 160
0.115179 -0.0553455 1.57062 158 107 160
0.118326 -0.0554187 1.57269 159 107 160
0.121476 -0.0554892 1.57469 159 107 160
0.124634 -0.0555596 1.57669 160 107 160
0.127799 -0.0556301 1.57869 161 107 160
0.130972 -0.0557006 1.58069 162 107 160
0.134152 -0.0557711 1.58269 163 107 160
0.137347 -0.0558443 1.58477 163 107 160
0.140556 -0.0559202 1.58692 164 107 160
0.143767 -0.0559933 1.589 165 107 160
0.146978 -0.0560638 1.591 166 107 160
0.150197 -0.0561343 1.593 167 107 160
0.153424 -0.0562048 1.595 167 107 160
0.156658 -0.0562752 1.597 168 107 160
0.1599 -0.0563457 1.599 169 107 160
0.16315 -0.0564162 1.601 170 107 160
0.166423 -0.0564921 1.60315 171 107 160
0.169696 -0.0565653 1.60523 171 107 160
0.172977 -0.0566385 1.60731 172 107 160
0.176258 -0.0567089 1.60931 173 107 160
0.179546 -0.0567794 1.61131 174 107 160
0.182842 -0.0568499 1.61331 175 107 160
0.186145 -0.0569204 1.61531 175 107 160
0.189465 -0.0569935 1.61738 176 107 160
0.192793 -0.0570667 1.61946 177 107 160
0.196129 -0.0571399 1.62154 178 107 160
0.199473 -0.0572132 1.62362 179 107 160
0.202825 -0.0572863 1.62569 179 107 160
0.206174 -0.0573568 1.62769 180 107 160
0.209532 -0.0574273 1.62969 181 107 160
0.212897 -0.0574977 1.63169 182 107 160
0.21627 -0.0575682 1.63369 183 107 160
0.21965 -0.0576387 1.63569 183 107 160
0.223049 -0.0577119 1.63777 184 107 160
0.226466 -0.0577878 1.63992 185 107 160
0.22988 -0.057861 1.642 186 107 160
0.233291 -0.0579314 1.644 187 107 160
0.23671 -0.0580019 1.646 187 107 160
0.240137 -0.0580724 1.648 188 107 160
0.243571 -0.0581429 1.65 189 107 160
0.247013 -0.0582133 1.652 190 107 160
0.250463 -0.0582838 1.654 191 107 160
0.253932 -0.058357 1.65608 191 107 160
0.257421 -0.0584329 1.65823 192 107 160
0.260905 -0.0585061 1.66031 193 107 160
0.264386 -0.0585766 1.66231 194 107 160
0.267874 -0.058647 1.66431 195 107 160
0.27137 -0.0587175 1.66631 195 107 160
0.274874 -0.058788 1.66831 196 107 160
0.278385 -0.0588585 1.67031 197 107 160
0.281916 -0.0589316 1.67238 198 107 160
0.285456 -0.0590048 1.67446 199 107 160
0.289003 -0.059078 1.67654 199 107 160
0.292559 -0.0591513 1.67862 200 107 160
0.296122 -0.0592244 1.68069 201 107 160
0.29968 -0.0592949 1.68269 202 107 160
0.303245 -0.0593654 1.68469 203 107 160
0.306817 -0.0594358 1.68669 203 107 160
0.310398 -0.0595063 1.68869 204 107 160
0.313986 -0.0595768 1.69069 205 107 160
0.317596 -0.05965 1.69277 206 107 160
0.321228 -0.0597259 1.69492 207 107 160
0.324854 -0.0597991 1.697 207 107 160
0.328473 -0.0598695 1.699 208 107 160
0.3321 -0.05994 1.701 209 107 160
0.335734 -0.0600105 1.703 210 107 160
0.339376 -0.060081 1.705 211 107 160
0.343026 -0.0601514 1.707 211 107 160
0.346683 -0.0602219 1.709 212 107 160
0.350363 -0.0602951 1.71108 213 107 160
0.354068 -0.060371 1.71323 214 107 160
0.357764 -0.0604442 1.71531 215 107 160
0.361452 -0.0605147 1.71731 215 107 160
0.365148 -0.0605851 1.71931 216 107 160
0.368852 -0.0606556 1.72131 217 107 160
0.372563 -0.0607261 1.72331 218 107 160
0.376281 -0.0607966 1.72531 219 107 160
0.380024 -0.0608697 1.72738 219 107 160
0.383776 -0.0609429 1.72946 220 107 160
0.387535 -0.0610161 1.73154 221 107 160
0.391302 -0.0610893 1.73362 222 107 160
0.395077 -0.0611625 1.73569 223 107 160
0.398842 -0.061233 1.73769 223 107 160
0.402615 -0.0613035 1.73969 224 107 160
0.406395 -0.0613739 1.74169 225 107 160
0.410183 -0.0614444 1.74369 226 107 160
0.413997 -0.0615176 1.74577 227 107 160
0.417819 -0.0615908 1.74785 227 107 160
0.421667 -0.0616667 1.75 228 107 160
0.425486 -0.0617372 1.752 229 107 160
0.429312 -0.0618076 1.754 230 107 160
0.433147 -0.0618781 1.756 231 107 160
0.436989 -0.0619486 1.758 231 107 160
0.440838 -0.0620191 1.76 232 107 160
0.444695 -0.0620895 1.762 233 107 160
0.44858 -0.0621627 1.76408 234 107 160
0.452492 -0.0622386 1.76623 235 107 160
0.456392 -0.0623118 1.76831 235 107 160
0.46028 -0.0623823 1.77031 236 107 160
0.464176 -0.0624527 1.77231 237 107 160
0.468079 -0.0625232 1.77431 238 107 160
0.47199 -0.0625937 1.77631 239 107 160
0.475909 -0.0626642 1.77831 239 107 160
0.479856 -0.0627373 1.78038 240 107 160
0.483811 -0.0628105 1.78246 241 107 160
0.487774 -0.0628837 1.78454 242 107 160
0.491745 -0.062957 1.78662 243 107 160
0.495723 -0.0630301 1.78869 243 107 160
0.499689 -0.0631006 1.79069 244 107 160
0.503661 -0.0631711 1.79269 245 107 160
0.507642 -0.0632415 1.79469 246 107 160
0.51163 -0.063312 1.79669 247 107 160
0.515625 -0.0633825 1.79869 247 107 160
0.519651 -0.0634557 1.80077 248 107 160
0.523706 -0.0635316 1.80292 249 107 160
0.527748 -0.0636048 1.805 250 107 160
0.531774 -0.0636752 1.807 251 107 160
0.535809 -0.0637457 1.809 251 107 160
0.53985 -0.0638162 1.811 252 107 160
0.543877 -0.063884 1.81292 253 107 160
0.547819 -0.063941 1.81454 254 107 160
0.551485 -0.0639654 1.81523 255 107 160
-0.355316 -0.0389845 1.16953 0 108 160
-0.353298 -0.0390076 1.17023 0 108 160
-0.351577 -0.0390641 1.17192 1 108 160
-0.349964 -0.0391333 1.174 2 108 160
-0.34832 -0.0392 1.176 3 108 160
-0.346669 -0.0392667 1.178 3 108 160
-0.34501 -0.0393333 1.18 4 108 160
-0.343343 -0.0394 1.182 5 108 160
-0.341669 -0.0394667 1.184 6 108 160
-0.339987 -0.0395333 1.186 7 108 160
-0.338319 -0.0396026 1.18808 7 108 160
-0.336665 -0.0396744 1.19023 8 108 160
-0.334982 -0.0397436 1.19231 9 108 160
-0.333269 -0.0398103 1.19431 10 108 160
-0.331548 -0.0398769 1.19631 11 108 160
-0.32982 -0.0399436 1.19831 11 108 160
-0.328084 -0.0400103 1.20031 12 108 160
-0.326341 -0.0400769 1.20231 13 108 160
-0.32461 -0.0401461 1.20438 14 108 160
-0.322872 -0.0402154 1.20646 15 108 160
-0.321126 -0.0402846 1.20854 15 108 160
-0.319372 -0.0403539 1.21062 16 108 160
-0.31761 -0.0404231 1.21269 17 108 160
-0.31582 -0.0404898 1.21469 18 108 160
-0.314023 -0.0405564 1.21669 19 108 160
-0.312217 -0.0406231 1.21869 19 108 160
-0.310405 -0.0406898 1.22069 20 108 160
-0.308604 -0.040759 1.22277 21 108 160
-0.306795 -0.0408282 1.22485 22 108 160
-0.304997 -0.0409 1.227 23 108 160
-0.303153 -0.0409667 1.229 23 108 160
-0.301302 -0.0410333 1.231 24 108 160
-0.299443 -0.0411 1.233 25 108 160
-0.297576 -0.0411667 1.235 26 108 160
-0.295702 -0.0412333 1.237 27 108 160
-0.29382 -0.0413 1.239 27 108 160
-0.291949 -0.0413692 1.24108 28 108 160
-0.290087 -0.041441 1.24323 29 108 160
-0.2882 -0.0415103 1.24531 30 108 160
-0.286287 -0.0415769 1.24731 31 108 160
-0.284366 -0.0416436 1.24931 31 108 160
-0.282438 -0.0417103 1.25131 32 108 160
-0.280502 -0.0417769 1.25331 33 108 160
-0.278559 -0.0418436 1.25531 34 108 160
-0.276624 -0.0419128 1.25738 35 108 160
-0.274682 -0.041982 1.25946 35 108 160
-0.272733 -0.0420513 1.26154 36 108 160
-0.270775 -0.0421205 1.26362 37 108 160
-0.268809 -0.0421897 1.26569 38 108 160
-0.266819 -0.0422564 1.26769 39 108 160
-0.264822 -0.0423231 1.26969 39 108 160
-0.262816 -0.0423898 1.27169 40 108 160
-0.260804 -0.0424564 1.27369 41 108 160
-0.258783 -0.0425231 1.27569 42 108 160
-0.256771 -0.0425923 1.27777 43 108 160
-0.254766 -0.0426641 1.27992 43 108 160
-0.252737 -0.0427333 1.282 44 108 160
-0.250686 -0.0428 1.284 45 108 160
-0.248627 -0.0428667 1.286 46 108 160
-0.24656 -0.0429333 1.288 47 108 160
-0.244486 -0.043 1.29 47 108 160
-0.242404 -0.0430667 1.292 48 108 160
-0.240314 -0.0431333 1.294 49 108 160
-0.238231 -0.0432026 1.29608 50 108 160
-0.236154 -0.0432744 1.29823 51 108 160
-0.234055 -0.0433436 1.30031 51 108 160
-0.231935 -0.0434103 1.30231 52 108 160
-0.229807 -0.0434769 1.30431 53 108 160
-0.227671 -0.0435436 1.30631 54 108 160
-0.225527 -0.0436103 1.30831 55 108 160
-0.223376 -0.0436769 1.31031 55 108 160
-0.22123 -0.0437461 1.31238 56 108 160
-0.219077 -0.0438154 1.31446 57 108 160
-0.216915 -0.0438846 1.31654 58 108 160
-0.214746 -0.0439539 1.31862 59 108 160
-0.212569 -0.0440231 1.32069 59 108 160
-0.210371 -0.0440898 1.32269 60 108 160
-0.208166 -0.0441564 1.32469 61 108 160
-0.205953 -0.0442231 1.32669 62 108 160
-0.203733 -0.0442897 1.32869 63 108 160
-0.201517 -0.044359 1.33077 63 108 160
-0.199292 -0.0444282 1.33285 64 108 160
-0.197071 -0.0445 1.335 65 108 160
-0.19482 -0.0445667 1.337 66 108 160
-0.192561 -0.0446333 1.339 67 108 160
-0.190294 -0.0447 1.341 67 108 160
-0.18802 -0.0447667 1.343 68 108 160
-0.185738 -0.0448333 1.345 69 108 160
-0.183449 -0.0449 1.347 70 108 160
-0.181162 -0.0449692 1.34908 71 108 160
-0.178877 -0.045041 1.35123 71 108 160
-0.176574 -0.0451103 1.35331 72 108 160
-0.174254 -0.0451769 1.35531 73 108 160
-0.171926 -0.0452436 1.35731 74 108 160
-0.16959 -0.0453103 1.35931 75 108 160
-0.167246 -0.0453769 1.36131 75 108 160
-0.164895 -0.0454436 1.36331 76 108 160
-0.162518 -0.0455052 1.36516 77 108 160
-0.147981 -0.0421083 1.26325 78 108 160
-0.109405 -0.0316461 0.949384 79 108 160
-0.0473473 -0.0139257 0.41777 79 108 160
-0.0115094 -0.00344299 0.10329 80 108 160
0.00407784 -0.00385742 0.115722 142 108 160
0.0173943 -0.0156103 0.468308 143 108 160
0.0416757 -0.0355768 1.0673 143 108 160
0.0581986 -0.0473709 1.42113 144 108 160
0.065944 -0.0512898 1.53869 145 108 160
0.0689643 -0.0513564 1.54069 146 108 160
0.0719923 -0.0514231 1.54269 147 108 160
0.0750279 -0.0514898 1.54469 147 108 160
0.0780712 -0.0515564 1.54669 148 108 160
0.081126 -0.0516257 1.54877 149 108 160
0.084193 -0.0516974 1.55092 150 108 160
0.0872638 -0.0517667 1.553 151 108 160
0.0903381 -0.0518333 1.555 151 108 160
0.09342 -0.0519 1.557 152 108 160
0.0965095 -0.0519667 1.559 153 108 160
0.0996067 -0.0520333 1.561 154 108 160
0.102711 -0.0521 1.563 155 108 160
0.105824 -0.0521667 1.565 155 108 160
0.108949 -0.0522359 1.56708 156 108 160
0.112088 -0.0523077 1.56923 157 108 160
0.115229 -0.0523769 1.57131 158 108 160
0.118373 -0.0524436 1.57331 159 108 160
0.121524 -0.0525103 1.57531 159 108 160
0.124682 -0.0525769 1.57731 160 108 160
0.127849 -0.0526436 1.57931 161 108 160
0.131023 -0.0527103 1.58131 162 108 160
0.134211 -0.0527795 1.58338 163 108 160
0.137407 -0.0528487 1.58546 163 108 160
0.140611 -0.052918 1.58754 164 108 160
0.143822 -0.0529872 1.58962 165 108 160
0.147042 -0.0530564 1.59169 166 108 160
0.150262 -0.0531231 1.59369 167 108 160
0.15349 -0.0531898 1.59569 167 108 160
0.156726 -0.0532564 1.59769 168 108 160
0.159969 -0.0533231 1.59969 169 108 160
0.163228 -0.0533923 1.60177 170 108 160
0.166495 -0.0534616 1.60385 171 108 160
0.169777 -0.0535333 1.606 171 108 160
0.173051 -0.0536 1.608 172 108 160
0.176333 -0.0536667 1.61 173 108 160
0.179623 -0.0537333 1.612 174 108 160
0.18292 -0.0538 1.614 175 108 160
0.186225 -0.0538667 1.616 175 108 160
0.189537 -0.0539333 1.618 176 108 160
0.192866 -0.0540026 1.62008 177 108 160
0.196213 -0.0540744 1.62223 178 108 160
0.199558 -0.0541436 1.62431 179 108 160
0.202901 -0.0542103 1.62631 179 108 160
0.206252 -0.0542769 1.62831 180 108 160
0.209611 -0.0543436 1.63031 181 108 160
0.212977 -0.0544103 1.63231 182 108 160
0.216351 -0.0544769 1.63431 183 108 160
0.219743 -0.0545461 1.63638 183 108 160
0.223143 -0.0546154 1.63846 184 108 160
0.226551 -0.0546846 1.64054 185 108 160
0.229966 -0.0547539 1.64262 186 108 160
0.23339 -0.0548231 1.64469 187 108 160
0.23681 -0.0548898 1.64669 187 108 160
0.240238 -0.0549564 1.64869 188 108 160
0.243674 -0.0550231 1.65069 189 108 160
0.247117 -0.0550897 1.65269 190 108 160
0.250568 -0.0551564 1.65469 191 108 160
0.254038 -0.0552257 1.65677 191 108 160
0.257528 -0.0552974 1.65892 192 108 160
0.261014 -0.0553667 1.661 193 108 160
0.264496 -0.0554333 1.663 194 108 160
0.267986 -0.0555 1.665 195 108 160
0.271483 -0.0555667 1.667 195 108 160
0.274988 -0.0556333 1.669 196 108 160
0.2785 -0.0557 1.671 197 108 160
0.28202 -0.0557667 1.673 198 108 160
0.285561 -0.0558359 1.67508 199 108 160
0.289123 -0.0559077 1.67723 199 108 160
0.292679 -0.0559769 1.67931 200 108 160
0.29623 -0.0560436 1.68131 201 108 160
0.299789 -0.0561103 1.68331 202 108 160
0.303355 -0.0561769 1.68531 203 108 160
0.306929 -0.0562436 1.68731 203 108 160
0.310511 -0.0563103 1.68931 204 108 160
0.314114 -0.0563795 1.69138 205 108 160
0.317726 -0.0564487 1.69346 206 108 160
0.321345 -0.056518 1.69554 207 108 160
0.324972 -0.0565872 1.69762 207 108 160
0.328607 -0.0566564 1.69969 208 108 160
0.332235 -0.0567231 1.70169 209 108 160
0.335871 -0.0567898 1.70369 210 108 160
0.339514 -0.0568564 1.70569 211 108 160
0.343165 -0.0569231 1.70769 211 108 160
0.346823 -0.0569898 1.70969 212 108 160
0.350505 -0.057059 1.71177 213 108 160
0.354211 -0.0571308 1.71392 214 108 160
0.357909 -0.0572 1.716 215 108 160
0.361598 -0.0572667 1.718 215 108 160
0.365295 -0.0573333 1.72 216 108 160
0.369 -0.0574 1.722 217 108 160
0.372712 -0.0574667 1.724 218 108 160
0.376432 -0.0575333 1.726 219 108 160
0.38016 -0.0576 1.728 219 108 160
0.383929 -0.0576718 1.73015 220 108 160
0.38769 -0.057741 1.73223 221 108 160
0.391458 -0.0578103 1.73431 222 108 160
0.395217 -0.0578769 1.73631 223 108 160
0.398983 -0.0579436 1.73831 223 108 160
0.402757 -0.0580103 1.74031 224 108 160
0.406539 -0.0580769 1.74231 225 108 160
0.410346 -0.0581461 1.74438 226 108 160
0.414161 -0.0582154 1.74646 227 108 160
0.417984 -0.0582846 1.74854 227 108 160
0.421815 -0.0583539 1.75062 228 108 160
0.425654 -0.0584231 1.75269 229 108 160
0.429482 -0.0584898 1.75469 230 108 160
0.433318 -0.0585564 1.75669 231 108 160
0.437161 -0.0586231 1.75869 231 108 160
0.441012 -0.0586898 1.76069 232 108 160
0.44487 -0.0587564 1.76269 233 108 160
0.448756 -0.0588256 1.76477 234 108 160
0.452669 -0.0588974 1.76692 235 108 160
0.456571 -0.0589667 1.769 235 108 160
0.46046 -0.0590333 1.771 236 108 160
0.464357 -0.0591 1.773 237 108 160
0.468262 -0.0591667 1.775 238 108 160
0.472174 -0.0592333 1.777 239 108 160
0.476094 -0.0593 1.779 239 108 160
0.480022 -0.0593667 1.781 240 108 160
0.483978 -0.0594359 1.78308 241 108 160
0.487963 -0.0595077 1.78523 242 108 160
0.491935 -0.0595769 1.78731 243 108 160
0.495894 -0.0596436 1.78931 243 108 160
0.49986 -0.0597103 1.79131 244 108 160
0.503834 -0.0597769 1.79331 245 108 160
0.507816 -0.0598436 1.79531 246 108 160
0.511805 -0.0599103 1.79731 247 108 160
0.515823 -0.0599795 1.79938 247 108 160
0.51985 -0.0600487 1.80146 248 108 160
0.523885 -0.060118 1.80354 249 108 160
0.527928 -0.0601872 1.80562 250 108 160
0.531978 -0.0602564 1.80769 251 108 160
0.536014 -0.0603231 1.80969 251 108 160
0.540057 -0.0603898 1.81169 252 108 160
0.544085 -0.0604539 1.81362 253 108 160
0.548028 -0.0605078 1.81523 254 108 160
0.551696 -0.0605309 1.81593 255 108 160
-0.355526 -0.0367785 1.17023 0 109 160
-0.353506 -0.0368004 1.17092 0 109 160
-0.351785 -0.0368536 1.17262 1 109 160
-0.350148 -0.0369165 1.17462 2 109 160
-0.348525 -0.0369818 1.17669 3 109 160
-0.346872 -0.0370446 1.17869 3 109 160
-0.345212 -0.0371075 1.18069 4 109 160
-0.343544 -0.0371703 1.18269 5 109 160
-0.341868 -0.0372332 1.18469 6 109 160
-0.340185 -0.0372961 1.18669 7 109 160
-0.338516 -0.0373613 1.18877 7 109 160
-0.336861 -0.037429 1.19092 8 109 160
-0.335176 -0.0374943 1.193 9 109 160
-0.333462 -0.0375571 1.195 10 109 160
-0.33174 -0.03762 1.197 11 109 160
-0.330011 -0.0376829 1.199 11 109 160
-0.328273 -0.0377457 1.201 12 109 160
-0.326529 -0.0378086 1.203 13 109 160
-0.324776 -0.0378714 1.205 14 109 160
-0.323057 -0.0379391 1.20715 15 109 160
-0.32131 -0.0380044 1.20923 15 109 160
-0.319555 -0.0380697 1.21131 16 109 160
-0.317771 -0.0381325 1.21331 17 109 160
-0.31598 -0.0381954 1.21531 18 109 160
-0.314181 -0.0382582 1.21731 19 109 160
-0.312375 -0.0383211 1.21931 19 109 160
-0.31058 -0.0383863 1.22138 20 109 160
-0.308778 -0.0384516 1.22346 21 109 160
-0.306968 -0.0385169 1.22554 22 109 160
-0.30515 -0.0385822 1.22762 23 109 160
-0.303324 -0.0386475 1.22969 23 109 160
-0.301471 -0.0387103 1.23169 24 109 160
-0.299611 -0.0387732 1.23369 25 109 160
-0.297743 -0.0388361 1.23569 26 109 160
-0.295867 -0.0388989 1.23769 27 109 160
-0.293984 -0.0389618 1.23969 27 109 160
-0.292111 -0.039027 1.24177 28 109 160
-0.290249 -0.0390947 1.24392 29 109 160
-0.28836 -0.03916 1.246 30 109 160
-0.286446 -0.0392229 1.248 31 109 160
-0.284524 -0.0392857 1.25 31 109 160
-0.282594 -0.0393486 1.252 32 109 160
-0.280657 -0.0394114 1.254 33 109 160
-0.278712 -0.0394743 1.256 34 109 160
-0.27676 -0.0395371 1.258 35 109 160
-0.274817 -0.0396024 1.26008 35 109 160
-0.272882 -0.0396701 1.26223 36 109 160
-0.270923 -0.0397354 1.26431 37 109 160
-0.26894 -0.0397982 1.26631 38 109 160
-0.266949 -0.0398611 1.26831 39 109 160
-0.26495 -0.039924 1.27031 39 109 160
-0.262944 -0.0399868 1.27231 40 109 160
-0.26093 -0.0400497 1.27431 41 109 160
-0.258924 -0.0401149 1.27638 42 109 160
-0.25691 -0.0401802 1.27846 43 109 160
-0.254888 -0.0402455 1.28054 43 109 160
-0.252859 -0.0403108 1.28262 44 109 160
-0.250821 -0.0403761 1.28469 45 109 160
-0.248761 -0.0404389 1.28669 46 109 160
-0.246693 -0.0405018 1.28869 47 109 160
-0.244617 -0.0405646 1.29069 47 109 160
-0.242534 -0.0406275 1.29269 48 109 160
-0.240443 -0.0406903 1.29469 49 109 160
-0.238359 -0.0407556 1.29677 50 109 160
-0.23628 -0.0408233 1.29892 51 109 160
-0.23418 -0.0408886 1.301 51 109 160
-0.232058 -0.0409514 1.303 52 109 160
-0.229929 -0.0410143 1.305 53 109 160
-0.227791 -0.0410771 1.307 54 109 160
-0.225647 -0.04114 1.309 55 109 160
-0.223494 -0.0412029 1.311 55 109 160
-0.221334 -0.0412657 1.313 56 109 160
-0.219192 -0.0413334 1.31515 57 109 160
-0.217029 -0.0413987 1.31723 58 109 160
-0.214859 -0.041464 1.31931 59 109 160
-0.212668 -0.0415268 1.32131 59 109 160
-0.210469 -0.0415897 1.32331 60 109 160
-0.208263 -0.0416525 1.32531 61 109 160
-0.206049 -0.0417154 1.32731 62 109 160
-0.203839 -0.0417806 1.32938 63 109 160
-0.201621 -0.0418459 1.33146 63 109 160
-0.199396 -0.0419112 1.33354 64 109 160
-0.197162 -0.0419765 1.33562 65 109 160
-0.194921 -0.0420418 1.33769 66 109 160
-0.192661 -0.0421046 1.33969 67 109 160
-0.190393 -0.0421675 1.34169 67 109 160
-0.188117 -0.0422303 1.34369 68 109 160
-0.185834 -0.0422932 1.34569 69 109 160
-0.183543 -0.0423561 1.34769 70 109 160
-0.181255 -0.0424213 1.34977 71 109 160
-0.178969 -0.042489 1.35192 71 109 160
-0.176665 -0.0425543 1.354 72 109 160
-0.174343 -0.0426171 1.356 73 109 160
-0.172013 -0.04268 1.358 74 109 160
-0.169676 -0.0427429 1.36 75 109 160
-0.167331 -0.0428057 1.362 75 109 160
-0.164979 -0.0428686 1.364 76 109 160
-0.162601 -0.0429266 1.36585 77 109 160
-0.148053 -0.0397216 1.26387 78 109 160
-0.109459 -0.0298525 0.949851 79 109 160
-0.0473729 -0.013137 0.417996 79 109 160
-0.0115177 -0.00324858 0.103364 80 109 160
0.00407784 -0.00363699 0.115722 142 109 160
0.0173999 -0.014723 0.468458 143 109 160
0.0416938 -0.0335584 1.06777 143 109 160
0.0582238 -0.0446834 1.42174 144 109 160
0.0659703 -0.0483782 1.53931 145 109 160
0.0689919 -0.0484411 1.54131 146 109 160
0.072021 -0.048504 1.54331 147 109 160
0.0750578 -0.0485668 1.54531 147 109 160
0.078106 -0.0486321 1.54738 148 109 160
0.0811623 -0.0486974 1.54946 149 109 160
0.0842264 -0.0487627 1.55154 150 109 160
0.0872984 -0.0488279 1.55362 151 109 160
0.0903783 -0.0488932 1.55569 151 109 160
0.0934616 -0.0489561 1.55769 152 109 160
0.0965524 -0.0490189 1.55969 153 109 160
0.0996509 -0.0490818 1.56169 154 109 160
0.102757 -0.0491446 1.56369 155 109 160
0.105871 -0.0492075 1.56569 155 109 160
0.108997 -0.0492728 1.56777 156 109 160
0.112137 -0.0493404 1.56992 157 109 160
0.11528 -0.0494057 1.572 158 109 160
0.118425 -0.0494686 1.574 159 109 160
0.121577 -0.0495314 1.576 159 109 160
0.124737 -0.0495943 1.578 160 109 160
0.127905 -0.0496572 1.58 161 109 160
0.13108 -0.04972 1.582 162 109 160
0.134263 -0.0497829 1.584 163 109 160
0.137467 -0.0498505 1.58615 163 109 160
0.140672 -0.0499158 1.58823 164 109 160
0.143885 -0.0499811 1.59031 165 109 160
0.147099 -0.050044 1.59231 166 109 160
0.15032 -0.0501068 1.59431 167 109 160
0.15355 -0.0501697 1.59631 167 109 160
0.156786 -0.0502325 1.59831 168 109 160
0.160038 -0.0502978 1.60038 169 109 160
0.163298 -0.0503631 1.60246 170 109 160
0.166566 -0.0504284 1.60454 171 109 160
0.169842 -0.0504937 1.60662 171 109 160
0.173126 -0.0505589 1.60869 172 109 160
0.176409 -0.0506218 1.61069 173 109 160
0.1797 -0.0506846 1.61269 174 109 160
0.182999 -0.0507475 1.61469 175 109 160
0.186305 -0.0508103 1.61669 175 109 160
0.189618 -0.0508732 1.61869 176 109 160
0.192949 -0.0509385 1.62077 177 109 160
0.196296 -0.0510062 1.62292 178 109 160
0.199643 -0.0510714 1.625 179 109 160
0.202988 -0.0511343 1.627 179 109 160
0.20634 -0.0511971 1.629 180 109 160
0.2097 -0.05126 1.631 181 109 160
0.213068 -0.0513229 1.633 182 109 160
0.216443 -0.0513857 1.635 183 109 160
0.219826 -0.0514486 1.637 183 109 160
0.223227 -0.0515139 1.63908 184 109 160
0.226646 -0.0515815 1.64123 185 109 160
0.230063 -0.0516468 1.64331 186 109 160
0.233477 -0.0517097 1.64531 187 109 160
0.236899 -0.0517725 1.64731 187 109 160
0.240328 -0.0518354 1.64931 188 109 160
0.243764 -0.0518982 1.65131 189 109 160
0.247209 -0.0519611 1.65331 190 109 160
0.250672 -0.0520264 1.65538 191 109 160
0.254144 -0.0520916 1.65746 191 109 160
0.257624 -0.0521569 1.65954 192 109 160
0.261111 -0.0522222 1.66162 193 109 160
0.264606 -0.0522875 1.66369 194 109 160
0.268097 -0.0523503 1.66569 195 109 160
0.271596 -0.0524132 1.66769 195 109 160
0.275102 -0.0524761 1.66969 196 109 160
0.278615 -0.0525389 1.67169 197 109 160
0.282137 -0.0526018 1.67369 198 109 160
0.285679 -0.0526671 1.67577 199 109 160
0.289242 -0.0527347 1.67792 199 109 160
0.2928 -0.0528 1.68 200 109 160
0.296352 -0.0528629 1.682 201 109 160
0.299912 -0.0529257 1.684 202 109 160
0.30348 -0.0529886 1.686 203 109 160
0.307055 -0.0530514 1.688 203 109 160
0.310638 -0.0531143 1.69 204 109 160
0.314229 -0.0531772 1.692 205 109 160
0.317841 -0.0532424 1.69408 206 109 160
0.321476 -0.0533101 1.69623 207 109 160
0.325105 -0.0533754 1.69831 207 109 160
0.328726 -0.0534382 1.70031 208 109 160
0.332355 -0.0535011 1.70231 209 109 160
0.335992 -0.053564 1.70431 210 109 160
0.339636 -0.0536268 1.70631 211 109 160
0.343289 -0.0536897 1.70831 211 109 160
0.346964 -0.0537549 1.71038 212 109 160
0.350647 -0.0538202 1.71246 213 109 160
0.354338 -0.0538855 1.71454 214 109 160
0.358037 -0.0539508 1.71662 215 109 160
0.361744 -0.0540161 1.71869 215 109 160
0.365442 -0.0540789 1.72069 216 109 160
0.369148 -0.0541418 1.72269 217 109 160
0.372862 -0.0542046 1.72469 218 109 160
0.376583 -0.0542675 1.72669 219 109 160
0.380329 -0.0543328 1.72877 219 109 160
0.384083 -0.0543981 1.73085 220 109 160
0.387862 -0.0544657 1.733 221 109 160
0.391614 -0.0545286 1.735 222 109 160
0.395374 -0.0545914 1.737 223 109 160
0.399142 -0.0546543 1.739 223 109 160
0.402917 -0.0547171 1.741 224 109 160
0.4067 -0.05478 1.743 225 109 160
0.410491 -0.0548429 1.745 226 109 160
0.414307 -0.0549081 1.74708 227 109 160
0.418149 -0.0549758 1.74923 227 109 160
0.421982 -0.0550411 1.75131 228 109 160
0.425803 -0.055104 1.75331 229 109 160
0.429632 -0.0551668 1.75531 230 109 160
0.433469 -0.0552297 1.75731 231 109 160
0.437314 -0.0552925 1.75931 231 109 160
0.441166 -0.0553554 1.76131 232 109 160
0.445045 -0.0554206 1.76338 233 109 160
0.448932 -0.0554859 1.76546 234 109 160
0.452827 -0.0555512 1.76754 235 109 160
0.45673 -0.0556165 1.76962 235 109 160
0.46064 -0.0556818 1.77169 236 109 160
0.464539 -0.0557446 1.77369 237 109 160
0.468445 -0.0558075 1.77569 238 109 160
0.472358 -0.0558703 1.77769 239 109 160
0.47628 -0.0559332 1.77969 239 109 160
0.480209 -0.0559961 1.78169 240 109 160
0.484166 -0.0560613 1.78377 241 109 160
0.488152 -0.056129 1.78592 242 109 160
0.492126 -0.0561943 1.788 243 109 160
0.496086 -0.0562572 1.79 243 109 160
0.500053 -0.05632 1.792 244 109 160
0.504029 -0.0563829 1.794 245 109 160
0.508011 -0.0564457 1.796 246 109 160
0.512002 -0.0565086 1.798 247 109 160
0.516 -0.0565714 1.8 247 109 160
0.520028 -0.0566367 1.80208 248 109 160
0.524086 -0.0567044 1.80423 249 109 160
0.52813 -0.0567697 1.80631 250 109 160
0.532159 -0.0568325 1.80831 251 109 160
0.536196 -0.0568954 1.81031 251 109 160
0.54024 -0.0569582 1.81231 252 109 160
0.544292 -0.0570211 1.81431 253 109 160
0.548213 -0.0570695 1.81585 254 109 160
0.55186 -0.0570889 1.81647 255 109 160
-0.35569 -0.0345655 1.17077 0 110 160
-0.353715 -0.0345905 1.17161 0 110 160
-0.351992 -0.0346405 1.17331 1 110 160
-0.350354 -0.0346996 1.17531 2 110 160
-0.348707 -0.0347586 1.17731 3 110 160
-0.347053 -0.0348177 1.17931 3 110 160
-0.345392 -0.0348767 1.18131 4 110 160
-0.343723 -0.0349358 1.18331 5 110 160
-0.342046 -0.0349948 1.18531 6 110 160
-0.340383 -0.0350561 1.18738 7 110 160
-0.338713 -0.0351174 1.18946 7 110 160
-0.337035 -0.0351788 1.19154 8 110 160
-0.335349 -0.0352401 1.19362 9 110 160
-0.333655 -0.0353014 1.19569 10 110 160
-0.331932 -0.0353604 1.19769 11 110 160
-0.330201 -0.0354195 1.19969 11 110 160
-0.328463 -0.0354785 1.20169 12 110 160
-0.326717 -0.0355376 1.20369 13 110 160
